# .PCD v0.7 - Point Cloud Data file format
VERSION 0.7
FIELDS x y z rgb
SIZE 4 4 4 4
TYPE F F F U
COUNT 1 1 1 1
WIDTH 1079
HEIGHT 1
VIEWPOINT 0 0 0 1 0 0 0
POINTS 1079
DATA ascii
0.096990198 0.0045941621 0.45400003 16768486
0.097484149 0.0045941621 0.45400003 16701922
0.098193906 0.0046042814 0.45500001 16701922
0.098688945 0.0046042814 0.45500001 16767972
0.099183977 0.0046042814 0.45500001 16767713
0.099679008 0.0046042814 0.45500001 16109269
0.09995389 0.0045941621 0.45400003 16373209
0.10044783 0.0045941621 0.45400003 16771822
0.10094178 0.0045941621 0.45400003 16769511
0.10165916 0.0046042814 0.45500001 14926279
0.1021542 0.0046042814 0.45500001 13479348
0.10264923 0.0046042814 0.45500001 13479348
0.10314427 0.0046042814 0.45500001 14268864
0.1036393 0.0046042814 0.45500001 14861771
0.10436321 0.0046144007 0.45600003 14993357
0.10485933 0.0046144007 0.45600003 14599112
0.10535546 0.0046144007 0.45600003 14401733
0.10757534 0.00462452 0.45700002 14467526
0.10830904 0.0046346392 0.45800003 13941182
0.10880734 0.0046346392 0.45800003 14072768
0.10930564 0.0046346392 0.45800003 13743290
0.11004368 0.0046447585 0.45900002 13743290
0.11054307 0.0046447585 0.45900002 13677244
0.11128438 0.0046548778 0.46000001 12887728
0.11178485 0.0046548778 0.46000001 12952751
0.11252943 0.0046649971 0.46100003 12557993
0.11327618 0.0046751164 0.46200001 11833240
0.11377884 0.0046751164 0.46200001 11504275
0.11428148 0.0046751164 0.46200001 11569806
0.11503259 0.0046852361 0.46300003 10977669
0.11553633 0.0046852361 0.46300003 10386816
0.11604007 0.0046852361 0.46300003 9202542
0.12948415 0.005160843 0.51000005 9202542
0.13003902 0.005160843 0.51000005 9071469
0.1305939 0.005160843 0.51000005 9137262
0.13114877 0.005160843 0.51000005 8744555
0.065575778 0.0053458782 0.47700003 10590089
0.065956183 0.0053346707 0.47600001 10327685
0.066334419 0.0053234636 0.47500002 10590857
0.06671048 0.0053122565 0.47400004 9933438
0.06708435 0.005301049 0.47300002 9538680
0.067456059 0.0052898419 0.47200003 9801852
0.067681581 0.0052674268 0.47000003 10393989
0.068047844 0.0052562198 0.46900001 11315091
0.068411939 0.0052450122 0.46800002 10459782
0.068773851 0.0052338052 0.46700001 10196610
0.06913358 0.0052225976 0.46600002 10065024
0.069341697 0.005200183 0.46400002 10065026
0.069696002 0.0051889759 0.46300003 9933440
0.070199743 0.0051889759 0.46300003 9801854
0.07055077 0.0051777684 0.46200001 9341303
0.071053423 0.0051777684 0.46200001 10393991
0.071401194 0.0051665613 0.46100003 10854027
0.071902752 0.0051665613 0.46100003 10525062
0.072247259 0.0051553538 0.46000001 10590857
0.072747737 0.0051553538 0.46000001 11117201
0.073248208 0.0051553538 0.46000001 11774877
0.073588364 0.0051441467 0.45900002 12630186
0.074087754 0.0051441467 0.45900002 13486010
0.074587137 0.0051441467 0.45900002 14209733
0.075086527 0.0051441467 0.45900002 14473425
0.075585917 0.0051441467 0.45900002 15328734
0.076085307 0.0051441467 0.45900002 16184043
0.076584697 0.0051441467 0.45900002 16447215
0.076916143 0.0051329397 0.45800003 16709100
0.077414438 0.0051329397 0.45800003 16775407
0.07791274 0.0051329397 0.45800003 16775913
0.078411043 0.0051329397 0.45800003 16776427
0.078909345 0.0051329397 0.45800003 16776679
0.079407647 0.0051329397 0.45800003 16776679
0.079731472 0.0051217321 0.45700002 16777191
0.080228686 0.0051217321 0.45700002 16777191
0.080725893 0.0051217321 0.45700002 16777191
0.081223108 0.0051217321 0.45700002 16777191
0.081541501 0.0051105251 0.45600003 16776939
0.082037628 0.0051105251 0.45600003 16776682
0.082533754 0.0051105251 0.45600003 16776173
0.083029881 0.0051105251 0.45600003 16776173
0.083526 0.0051105251 0.45600003 16245984
0.08402212 0.0051105251 0.45600003 15061710
0.084518246 0.0051105251 0.45600003 15127242
0.084827937 0.0050993175 0.45500001 15456207
0.085322969 0.0050993175 0.45500001 15784656
0.085818008 0.0050993175 0.45500001 14929347
0.086123347 0.0050881105 0.45400003 15585994
0.086617291 0.0050881105 0.45400003 15849166
0.087111242 0.0050881105 0.45400003 15649734
0.087605186 0.0050881105 0.45400003 15847113
0.087905087 0.0050769029 0.45300001 15912392
0.088397942 0.0050769029 0.45300001 16043978
0.088890806 0.0050769029 0.45300001 16372943
0.089383662 0.0050769029 0.45300001 16372943
0.089876518 0.0050769029 0.45300001 16109512
0.090369381 0.0050769029 0.45300001 15846340
0.090862244 0.0050769029 0.45300001 15648961
0.0913551 0.0050769029 0.45300001 15648961
0.091847964 0.0050769029 0.45300001 16109258
0.092340827 0.0050769029 0.45300001 16372430
0.092833683 0.0050769029 0.45300001 16305869
0.093326539 0.0050769029 0.45300001 16634834
0.094026513 0.0050881105 0.45400003 16766420
0.094520465 0.0050881105 0.45400003 16768990
0.095014408 0.0050881105 0.45400003 16502996
0.095508359 0.0050881105 0.45400003 16502996
0.096002303 0.0050881105 0.45400003 16568276
0.096496254 0.0050881105 0.45400003 16765912
0.096990198 0.0050881105 0.45400003 16502485
0.097484149 0.0050881105 0.45400003 16766171
0.0979781 0.0050881105 0.45400003 16766171
0.098688945 0.0050993175 0.45500001 16699864
0.099183977 0.0050993175 0.45500001 16239826
0.099459939 0.0050881105 0.45400003 16502998
0.09995389 0.0050881105 0.45400003 15845838
0.10044783 0.0050881105 0.45400003 15845838
0.10094178 0.0050881105 0.45400003 13806514
0.10165916 0.0050993175 0.45500001 14003893
0.1021542 0.0050993175 0.45500001 14333374
0.10264923 0.0050993175 0.45500001 14333374
0.10314427 0.0050993175 0.45500001 14070202
0.1036393 0.0050993175 0.45500001 14597314
0.10413434 0.0050993175 0.45500001 15123658
0.10485933 0.0051105251 0.45600003 14334655
0.10535546 0.0051105251 0.45600003 13742518
0.10585158 0.0051105251 0.45600003 13545909
0.1063477 0.0051105251 0.45600003 13348530
0.10707813 0.0051217321 0.45700002 13546422
0.10757534 0.0051217321 0.45700002 13020078
0.10807256 0.0051217321 0.45700002 12689830
0.10880734 0.0051329397 0.45800003 13150381
0.10930564 0.0051329397 0.45800003 12887209
0.11004368 0.0051441467 0.45900002 12689830
0.11054307 0.0051441467 0.45900002 12425894
0.11128438 0.0051553538 0.46000001 11833757
0.11178485 0.0051553538 0.46000001 12161954
0.11252943 0.0051665613 0.46100003 11832989
0.11327618 0.0051777684 0.46200001 11371662
0.11377884 0.0051777684 0.46200001 11371662
0.11428148 0.0051777684 0.46200001 11109253
0.11503259 0.0051889759 0.46300003 11240839
0.11553633 0.0051889759 0.46300003 11241353
0.11629069 0.005200183 0.46400002 10122872
0.13003902 0.005715719 0.51000005 9005674
0.1305939 0.005715719 0.51000005 8939881
0.13114877 0.005715719 0.51000005 8481383
0.0654383 0.0058525545 0.47600001 10656396
0.065817624 0.0058402596 0.47500002 10459782
0.066194773 0.0058279643 0.47400004 10459782
0.066569738 0.005815669 0.47300002 10459782
0.066942528 0.0058033736 0.47200003 10262403
0.067313142 0.0057910783 0.47100002 10262403
0.067681581 0.005778783 0.47000003 9999231
0.067902759 0.0057541924 0.46800002 10262403
0.068265758 0.005741897 0.46700001 9867645
0.068626583 0.0057296017 0.46600002 10262403
0.068985231 0.0057173069 0.46500003 10262403
0.069341697 0.0057050111 0.46400002 10064513
0.069696002 0.0056927162 0.46300003 9209204
0.070199743 0.0056927162 0.46300003 9011825
0.07055077 0.0056804204 0.46200001 8682860
0.070899628 0.0056681256 0.46100003 8353381
0.071401194 0.0056681256 0.46100003 8156002
0.071746781 0.0056558303 0.46000001 7761244
0.072247259 0.0056558303 0.46000001 7562841
0.072747737 0.0056558303 0.46000001 7431255
0.073088981 0.0056435349 0.45900002 7365462
0.073588364 0.0056435349 0.45900002 7365462
0.074087754 0.0056435349 0.45900002 7365464
0.074587137 0.0056435349 0.45900002 7891808
0.074922942 0.0056312396 0.45800003 8483178
0.075421244 0.0056312396 0.45800003 9075315
0.075919546 0.0056312396 0.45800003 9667969
0.076417848 0.0056312396 0.45800003 10391692
0.076916143 0.0056312396 0.45800003 11245716
0.077414438 0.0056312396 0.45800003 11706267
0.07791274 0.0056312396 0.45800003 12692133
0.078411043 0.0056312396 0.45800003 13415856
0.07873705 0.0056189443 0.45700002 14073520
0.079234265 0.0056189443 0.45700002 14599864
0.079731472 0.0056189443 0.45700002 14338228
0.080228686 0.0056189443 0.45700002 14732986
0.080725893 0.0056189443 0.45700002 14996158
0.081045382 0.005606649 0.45600003 15193537
0.081541501 0.005606649 0.45600003 15259078
0.082037628 0.005606649 0.45600003 14798527
0.082352757 0.0055943537 0.45500001 14337210
0.083029881 0.005606649 0.45600003 14205624
0.08334282 0.0055943537 0.45500001 14007223
0.083837859 0.0055943537 0.45500001 14796739
0.084332898 0.0055943537 0.45500001 15454669
0.084827937 0.0055943537 0.45500001 15125704
0.085135452 0.0055820583 0.45400003 14928579
0.085629396 0.0055820583 0.45400003 14336442
0.086123347 0.0055820583 0.45400003 14598331
0.086617291 0.0055820583 0.45400003 14993089
0.08691936 0.005569763 0.45300001 14991806
0.087412223 0.005569763 0.45300001 15452357
0.087905087 0.005569763 0.45300001 15583429
0.088397942 0.005569763 0.45300001 15517636
0.088890806 0.005569763 0.45300001 15583429
0.089383662 0.005569763 0.45300001 15451843
0.089876518 0.005569763 0.45300001 15582916
0.090369381 0.005569763 0.45300001 15846088
0.090862244 0.005569763 0.45300001 15648709
0.0913551 0.005569763 0.45300001 15582916
0.091847964 0.005569763 0.45300001 15385537
0.092340827 0.005569763 0.45300001 15846088
0.092833683 0.005569763 0.45300001 16042697
0.093326539 0.005569763 0.45300001 15187388
0.093819402 0.005569763 0.45300001 14858169
0.094312266 0.005569763 0.45300001 15647685
0.095014408 0.0055820583 0.45400003 15252416
0.095508359 0.0055820583 0.45400003 15120830
0.096002303 0.0055820583 0.45400003 15186623
0.096496254 0.0055820583 0.45400003 16107725
0.096990198 0.0055820583 0.45400003 15843783
0.097484149 0.0055820583 0.45400003 15909576
0.0979781 0.0055820583 0.45400003 15843783
0.098472044 0.0055820583 0.45400003 15383232
0.098965995 0.0055820583 0.45400003 14791095
0.099459939 0.0055820583 0.45400003 14856888
0.09995389 0.0055820583 0.45400003 14002864
0.10044783 0.0055820583 0.45400003 13805485
0.10094178 0.0055820583 0.45400003 13674669
0.10165916 0.0055943537 0.45500001 14266806
0.1021542 0.0055943537 0.45500001 13543083
0.10264923 0.0055943537 0.45500001 13543083
0.10314427 0.0055943537 0.45500001 13082532
0.1036393 0.0055943537 0.45500001 14135733
0.10413434 0.0055943537 0.45500001 13214631
0.10462938 0.0055943537 0.45500001 13149352
0.10535546 0.005606649 0.45600003 12951973
0.10585158 0.005606649 0.45600003 12754594
0.1063477 0.005606649 0.45600003 12886180
0.10684382 0.005606649 0.45600003 13017512
0.10757534 0.0056189443 0.45700002 12162203
0.10807256 0.0056189443 0.45700002 12162203
0.10880734 0.0056312396 0.45800003 12030617
0.10930564 0.0056312396 0.45800003 12096410
0.11004368 0.0056435349 0.45900002 12096410
0.11054307 0.0056435349 0.45900002 12161691
0.11128438 0.0056558303 0.46000001 11832726
0.11178485 0.0056558303 0.46000001 11832473
0.11252943 0.0056681256 0.46100003 11174543
0.11327618 0.0056804204 0.46200001 11240076
0.11377884 0.0056804204 0.46200001 10976904
0.11452885 0.0056927162 0.46300003 11109253
0.11503259 0.0056927162 0.46300003 11109253
0.11553633 0.0056927162 0.46300003 10320249
0.11629069 0.0057050111 0.46400002 10122870
0.1305939 0.0062705949 0.51000005 8873575
0.064920418 0.0063704383 0.47600001 10788236
0.065300822 0.0063570552 0.47500002 10788236
0.065679058 0.0063436721 0.47400004 10525577
0.066055119 0.0063302885 0.47300002 10525577
0.066428997 0.0063169054 0.47200003 10722954
0.066800699 0.0063035218 0.47100002 10525575
0.067313142 0.0063035218 0.47100002 10591366
0.067537576 0.0062767551 0.46900001 10788745
0.068265758 0.0062499885 0.46700001 10459267
0.068626583 0.0062366053 0.46600002 10590341
0.068985231 0.0062232222 0.46500003 10590341
0.069341697 0.0062098391 0.46400002 10721927
0.069696002 0.006196456 0.46300003 10063997
0.070048116 0.0061830725 0.46200001 9735034
0.07055077 0.0061830725 0.46200001 9735034
0.070899628 0.0061696894 0.46100003 9602678
0.071246311 0.0061563058 0.46000001 9207920
0.071746781 0.0061563058 0.46000001 9142127
0.072247259 0.0061563058 0.46000001 9142127
0.072589591 0.0061429227 0.45900002 9207920
0.073088981 0.0061429227 0.45900002 8023392
0.073588364 0.0061429227 0.45900002 8023392
0.073926345 0.0061295396 0.45800003 7890264
0.074424639 0.0061295396 0.45800003 7824471
0.074922942 0.0061295396 0.45800003 8086359
0.075421244 0.0061295396 0.45800003 7954773
0.075919546 0.0061295396 0.45800003 7691347
0.076417848 0.0061295396 0.45800003 7625554
0.076916143 0.0061295396 0.45800003 7888728
0.077245407 0.006116156 0.45700002 8151900
0.077742621 0.006116156 0.45700002 8742500
0.078239836 0.006116156 0.45700002 9203051
0.07873705 0.006116156 0.45700002 9729388
0.079234265 0.006116156 0.45700002 9992560
0.079731472 0.006116156 0.45700002 10124142
0.080053136 0.0061027729 0.45600003 10255728
0.080549255 0.0061027729 0.45600003 10453361
0.081045382 0.0061027729 0.45600003 10519154
0.081541501 0.0061027729 0.45600003 10584693
0.081857719 0.0060893893 0.45500001 10584693
0.082352757 0.0060893893 0.45500001 10650490
0.082847789 0.0060893893 0.45500001 10979455
0.08334282 0.0060893893 0.45500001 11571338
0.083837859 0.0060893893 0.45500001 11702924
0.08414755 0.0060760062 0.45400003 11637133
0.084641501 0.0060760062 0.45400003 13479337
0.085135452 0.0060760062 0.45400003 13742507
0.085629396 0.0060760062 0.45400003 13216163
0.085933648 0.0060626226 0.45300001 14070702
0.086426504 0.0060626226 0.45300001 12491670
0.08691936 0.0060626226 0.45300001 13345952
0.087412223 0.0060626226 0.45300001 13148573
0.087905087 0.0060626226 0.45300001 12753045
0.088397942 0.0060626226 0.45300001 12753045
0.088890806 0.0060626226 0.45300001 13082010
0.089383662 0.0060626226 0.45300001 13871526
0.089678124 0.0060492395 0.45200002 14199978
0.090369381 0.0060626226 0.45300001 14726322
0.090862244 0.0060626226 0.45300001 14528943
0.0913551 0.0060626226 0.45300001 14068392
0.091847964 0.0060626226 0.45300001 13871015
0.092340827 0.0060626226 0.45300001 12686741
0.092833683 0.0060626226 0.45300001 13805222
0.093326539 0.0060626226 0.45300001 13805222
0.093819402 0.0060626226 0.45300001 13147292
0.094312266 0.0060626226 0.45300001 13607843
0.094805121 0.0060626226 0.45300001 14067370
0.095508359 0.0060760062 0.45400003 14001577
0.096002303 0.0060760062 0.45400003 13672612
0.096496254 0.0060760062 0.45400003 13409440
0.096990198 0.0060760062 0.45400003 14198956
0.097484149 0.0060760062 0.45400003 14067370
0.0979781 0.0060760062 0.45400003 13606819
0.098472044 0.0060760062 0.45400003 12817303
0.098965995 0.0060760062 0.45400003 13541028
0.099459939 0.0060760062 0.45400003 13738407
0.09995389 0.0060760062 0.45400003 13014686
0.10044783 0.0060760062 0.45400003 12619928
0.10094178 0.0060760062 0.45400003 13014686
0.10143574 0.0060760062 0.45400003 13475237
0.1021542 0.0060893893 0.45500001 12686489
0.10264923 0.0060893893 0.45500001 12686489
0.10314427 0.0060893893 0.45500001 12554903
0.1036393 0.0060893893 0.45500001 13541798
0.10413434 0.0060893893 0.45500001 12423317
0.10462938 0.0060893893 0.45500001 11568521
0.10512441 0.0060893893 0.45500001 12621209
0.10561945 0.0060893893 0.45500001 12621211
0.1063477 0.0061027729 0.45600003 12752797
0.10684382 0.0061027729 0.45600003 11107972
0.10733995 0.0061027729 0.45600003 12029074
0.10807256 0.006116156 0.45700002 12358039
0.10856977 0.006116156 0.45700002 11831695
0.10930564 0.0061295396 0.45800003 11502730
0.10980394 0.0061295396 0.45800003 12094867
0.11054307 0.0061429227 0.45900002 11963027
0.11128438 0.0061563058 0.46000001 11897234
0.11178485 0.0061563058 0.46000001 11831443
0.11252943 0.0061696894 0.46100003 11305099
0.11327618 0.0061830725 0.46200001 11370890
0.11377884 0.0061830725 0.46200001 11173511
0.11452885 0.006196456 0.46300003 11436935
0.11503259 0.006196456 0.46300003 10647419
0.11578587 0.0062098391 0.46400002 9859698
0.11629069 0.0062098391 0.46400002 9464940
0.11679552 0.0062098391 0.46400002 8544608
0.1305939 0.0068254699 0.51000005 7952471
0.13114877 0.0068254699 0.51000005 7625302
0.065540493 0.0068449085 0.47300002 9999233
0.065915465 0.0068304376 0.47200003 9867647
0.066288255 0.0068159658 0.47100002 11446675
0.067393579 0.0067725522 0.46800002 10130556
0.067902759 0.0067725522 0.46800002 9537651
0.068265758 0.0067580808 0.46700001 10392960
0.068626583 0.0067436094 0.46600002 10852228
0.068985231 0.0067291385 0.46500003 10852228
0.069341697 0.0067146672 0.46400002 11181195
0.069696002 0.0067001958 0.46300003 10589058
0.070048116 0.0066857245 0.46200001 10260093
0.07055077 0.0066857245 0.46200001 10260093
0.070899628 0.0066712531 0.46100003 10720644
0.071246311 0.0066567818 0.46000001 10786437
0.071746781 0.0066567818 0.46000001 9996921
0.072090201 0.0066423109 0.45900002 9470579
0.072589591 0.0066423109 0.45900002 10654853
0.072929747 0.0066278395 0.45800003 9667188
0.073428042 0.0066278395 0.45800003 8680293
0.073926345 0.0066278395 0.45800003 9139817
0.074424639 0.0066278395 0.45800003 9666161
0.074922942 0.0066278395 0.45800003 9928048
0.075421244 0.0066278395 0.45800003 9533290
0.075919546 0.0066278395 0.45800003 9335911
0.076250993 0.0066133682 0.45700002 9270118
0.076748207 0.0066133682 0.45700002 9006948
0.077245407 0.0066133682 0.45700002 9335913
0.077742621 0.0066133682 0.45700002 9533040
0.078239836 0.0066133682 0.45700002 9533040
0.07873705 0.0066133682 0.45700002 9598831
0.079234265 0.0066133682 0.45700002 9927796
0.079557009 0.0065988973 0.45600003 10190452
0.080053136 0.0065988973 0.45600003 10058866
0.080549255 0.0065988973 0.45600003 10189937
0.081045382 0.0065988973 0.45600003 10453109
0.08136268 0.0065844255 0.45500001 10781306
0.081857719 0.0065844255 0.45500001 10715513
0.08217176 0.0065699546 0.45400003 10715513
0.082665712 0.0065699546 0.45400003 10649720
0.083159655 0.0065699546 0.45400003 10715259
0.083653606 0.0065699546 0.45400003 10649466
0.08414755 0.0065699546 0.45400003 10845818
0.085933648 0.0065554827 0.45300001 11634564
0.086426504 0.0065554827 0.45300001 11897736
0.08691936 0.0065554827 0.45300001 12029322
0.087412223 0.0065554827 0.45300001 12424080
0.087905087 0.0065554827 0.45300001 13081497
0.088397942 0.0065554827 0.45300001 12686739
0.088890806 0.0065554827 0.45300001 12555153
0.089383662 0.0065554827 0.45300001 12620946
0.089678124 0.0065410119 0.45200002 12159625
0.090169892 0.0065410119 0.45200002 11764867
0.090661667 0.0065410119 0.45200002 12751762
0.0913551 0.0065554827 0.45300001 12488590
0.091847964 0.0065554827 0.45300001 12028041
0.092340827 0.0065554827 0.45300001 12159627
0.092833683 0.0065554827 0.45300001 12488338
0.093326539 0.0065554827 0.45300001 12225166
0.093819402 0.0065554827 0.45300001 12817303
0.094312266 0.0065554827 0.45300001 12685717
0.094805121 0.0065554827 0.45300001 13277340
0.095508359 0.0065699546 0.45400003 12948375
0.096002303 0.0065699546 0.45400003 13014682
0.096496254 0.0065699546 0.45400003 12159373
0.096990198 0.0065699546 0.45400003 13475233
0.097484149 0.0065699546 0.45400003 13475233
0.0979781 0.0065699546 0.45400003 12488338
0.098472044 0.0065699546 0.45400003 12619924
0.098965995 0.0065699546 0.45400003 12816278
0.099459939 0.0065699546 0.45400003 11895176
0.09995389 0.0065699546 0.45400003 12421522
0.10044783 0.0065699546 0.45400003 12224143
0.10094178 0.0065699546 0.45400003 12750487
0.10143574 0.0065699546 0.45400003 12816280
0.1021542 0.0065844255 0.45500001 12422033
0.10264923 0.0065844255 0.45500001 12422033
0.10314427 0.0065844255 0.45500001 12422033
0.1036393 0.0065844255 0.45500001 12685719
0.10413434 0.0065844255 0.45500001 12093582
0.10462938 0.0065844255 0.45500001 12225168
0.10512441 0.0065844255 0.45500001 12685719
0.10585158 0.0065988973 0.45600003 11961996
0.1063477 0.0065988973 0.45600003 12488340
0.10684382 0.0065988973 0.45600003 11764617
0.10733995 0.0065988973 0.45600003 11238273
0.10807256 0.0066133682 0.45700002 12159377
0.10856977 0.0066133682 0.45700002 12027791
0.10930564 0.0066278395 0.45800003 12093584
0.10980394 0.0066278395 0.45800003 12027791
0.11054307 0.0066423109 0.45900002 11830412
0.11128438 0.0066567818 0.46000001 11304068
0.11178485 0.0066567818 0.46000001 11369861
0.11252943 0.0066712531 0.46100003 11172482
0.11327618 0.0066857245 0.46200001 11106687
0.11377884 0.0066857245 0.46200001 11106687
0.11452885 0.0067001958 0.46300003 11764615
0.11503259 0.0067001958 0.46300003 10448755
0.11578587 0.0067146672 0.46400002 9464167
0.11629069 0.0067146672 0.46400002 9595753
0.11679552 0.0067146672 0.46400002 8412252
0.11730035 0.0067146672 0.46400002 7622736
0.1305939 0.0073803458 0.51000005 7622736
0.065025873 0.007359528 0.47300002 11774877
0.066288255 0.0073284092 0.47100002 12433570
0.066658869 0.0073128506 0.47000003 11841433
0.067027308 0.007297291 0.46900001 11841172
0.067393579 0.0072817318 0.46800002 10591105
0.067757666 0.0072661722 0.46700001 8549727
0.068265758 0.0072661722 0.46700001 8878692
0.068626583 0.0072506131 0.46600002 9206374
0.068985231 0.0072350544 0.46500003 9074788
0.069341697 0.0072194948 0.46400002 10061429
0.069696002 0.0072039356 0.46300003 9864050
0.070048116 0.007188376 0.46200001 9666671
0.07055077 0.007188376 0.46200001 9666671
0.070899628 0.0071728169 0.46100003 10521980
0.071246311 0.0071572573 0.46000001 11179910
0.071746781 0.0071572573 0.46000001 10982531
0.072090201 0.0071416986 0.45900002 9798772
0.072589591 0.0071416986 0.45900002 9930358
0.072929747 0.0071261395 0.45800003 10454903
0.073428042 0.0071261395 0.45800003 9862766
0.073926345 0.0071261395 0.45800003 9993839
0.074424639 0.0071261395 0.45800003 9928046
0.074922942 0.0071261395 0.45800003 10255728
0.075256564 0.0071105799 0.45700002 10189935
0.075753778 0.0071105799 0.45700002 10124142
0.076250993 0.0071105799 0.45700002 10058349
0.076748207 0.0071105799 0.45700002 9926763
0.077245407 0.0071105799 0.45700002 10453107
0.077742621 0.0071105799 0.45700002 11111039
0.078239836 0.0071105799 0.45700002 10979453
0.078564763 0.0070950207 0.45600003 10585208
0.079060882 0.0070950207 0.45600003 10585208
0.079557009 0.0070950207 0.45600003 10650488
0.080053136 0.0070950207 0.45600003 10650488
0.080549255 0.0070950207 0.45600003 10847867
0.080867648 0.0070794611 0.45500001 10847867
0.08136268 0.0070794611 0.45500001 10847869
0.081857719 0.0070794611 0.45500001 10650490
0.08217176 0.0070639024 0.45400003 10978685
0.082665712 0.0070639024 0.45400003 11241857
0.083159655 0.0070639024 0.45400003 11372929
0.083653606 0.0070639024 0.45400003 10451827
0.083962202 0.0070483428 0.45300001 11371646
0.085933648 0.0070483428 0.45300001 11700098
0.086426504 0.0070483428 0.45300001 11897477
0.08691936 0.0070483428 0.45300001 11700098
0.087412223 0.0070483428 0.45300001 11831684
0.087905087 0.0070483428 0.45300001 11831684
0.088202804 0.0070327837 0.45200002 11831684
0.08869458 0.0070327837 0.45200002 11633535
0.089186348 0.0070327837 0.45200002 11699328
0.089678124 0.0070327837 0.45200002 12225158
0.090169892 0.0070327837 0.45200002 12225158
0.090661667 0.0070327837 0.45200002 12619662
0.091153443 0.0070327837 0.45200002 12093318
0.091847964 0.0070483428 0.45300001 11435390
0.092340827 0.0070483428 0.45300001 12224906
0.092833683 0.0070483428 0.45300001 13277594
0.093326539 0.0070483428 0.45300001 12685457
0.093819402 0.0070483428 0.45300001 13080215
0.094312266 0.0070483428 0.45300001 12948629
0.094805121 0.0070483428 0.45300001 13343387
0.095297985 0.0070483428 0.45300001 13080215
0.096002303 0.0070639024 0.45400003 13146008
0.096496254 0.0070639024 0.45400003 11961734
0.096990198 0.0070639024 0.45400003 12751250
0.097484149 0.0070639024 0.45400003 12488078
0.0979781 0.0070639024 0.45400003 12816789
0.098472044 0.0070639024 0.45400003 12290445
0.098965995 0.0070639024 0.45400003 11828613
0.099459939 0.0070639024 0.45400003 11894406
0.09995389 0.0070639024 0.45400003 13012889
0.10044783 0.0070639024 0.45400003 12420752
0.10094178 0.0070639024 0.45400003 12553108
0.10143574 0.0070639024 0.45400003 12487315
0.1021542 0.0070794611 0.45500001 12224143
0.10264923 0.0070794611 0.45500001 12224143
0.10314427 0.0070794611 0.45500001 12355729
0.1036393 0.0070794611 0.45500001 11830410
0.10413434 0.0070794611 0.45500001 11961996
0.10462938 0.0070794611 0.45500001 12290961
0.10512441 0.0070794611 0.45500001 12027789
0.10561945 0.0070794611 0.45500001 11830410
0.1063477 0.0070950207 0.45600003 11830410
0.10684382 0.0070950207 0.45600003 12224654
0.10733995 0.0070950207 0.45600003 11764103
0.10807256 0.0071105799 0.45700002 11829896
0.10856977 0.0071105799 0.45700002 12224654
0.10930564 0.0071261395 0.45800003 11829896
0.10980394 0.0071261395 0.45800003 11698310
0.11054307 0.0071416986 0.45900002 11500929
0.11128438 0.0071572573 0.46000001 10316655
0.11178485 0.0071572573 0.46000001 10776693
0.11252943 0.0071728169 0.46100003 9921384
0.11327618 0.007188376 0.46200001 8933973
0.11377884 0.007188376 0.46200001 9789282
0.11452885 0.0072039356 0.46300003 10776945
0.11528104 0.0072194948 0.46400002 9921636
0.11578587 0.0072194948 0.46400002 9527905
0.11629069 0.0072194948 0.46400002 9725284
0.11679552 0.0072194948 0.46400002 8279893
0.11755315 0.0072350544 0.46500003 7819342
0.1305939 0.0079352213 0.51000005 7819342
0.065636165 0.0078242058 0.47000003 10327685
0.06600678 0.0078075584 0.46900001 11775642
0.06651704 0.0078075584 0.46900001 11380884
0.066884398 0.0077909115 0.46800002 12170139
0.067393579 0.0077909115 0.46800002 11446416
0.067757666 0.0077742641 0.46700001 9208170
0.068119578 0.0077576167 0.46600002 9339756
0.068479322 0.0077409698 0.46500003 9864304
0.068985231 0.0077409698 0.46500003 10324855
0.069341697 0.0077243224 0.46400002 10784892
0.069696002 0.0077076755 0.46300003 10982271
0.070048116 0.0076910276 0.46200001 10849915
0.07055077 0.0076910276 0.46200001 10849915
0.070899628 0.0076743807 0.46100003 9073250
0.071246311 0.0076577333 0.46000001 9335909
0.071746781 0.0076577333 0.46000001 10322804
0.072090201 0.0076410864 0.45900002 9993839
0.072589591 0.0076410864 0.45900002 10059632
0.072929747 0.007624439 0.45800003 10388081
0.073428042 0.007624439 0.45800003 9269600
0.073926345 0.007624439 0.45800003 10189417
0.074424639 0.007624439 0.45800003 10255210
0.074922942 0.007624439 0.45800003 10451562
0.075256564 0.0076077916 0.45700002 10319976
0.075753778 0.0076077916 0.45700002 10056804
0.076250993 0.0076077916 0.45700002 10846320
0.076748207 0.0076077916 0.45700002 11504252
0.077245407 0.0076077916 0.45700002 11438459
0.077742621 0.0076077916 0.45700002 10714482
0.078068636 0.0075911446 0.45600003 11175033
0.078564763 0.0075911446 0.45600003 11306619
0.079060882 0.0075911446 0.45600003 11438205
0.079557009 0.0075911446 0.45600003 11175548
0.080053136 0.0075911446 0.45600003 10978169
0.080372609 0.0075744973 0.45500001 11110269
0.080867648 0.0075744973 0.45500001 11044476
0.08136268 0.0075744973 0.45500001 11372927
0.081677817 0.0075578499 0.45400003 10846583
0.08217176 0.0075578499 0.45400003 10846583
0.082665712 0.0075578499 0.45400003 11438720
0.083159655 0.0075578499 0.45400003 11767172
0.083469339 0.0075412025 0.45300001 11043449
0.083962202 0.0075412025 0.45300001 11436924
0.084455065 0.0075412025 0.45300001 11436924
0.084947921 0.0075412025 0.45300001 11567740
0.085440785 0.0075412025 0.45300001 11699326
0.085743949 0.0075245555 0.45200002 12159877
0.086235717 0.0075245555 0.45200002 11830912
0.086727493 0.0075245555 0.45200002 12554635
0.087219261 0.0075245555 0.45200002 12488842
0.087711036 0.0075245555 0.45200002 12488842
0.088202804 0.0075245555 0.45200002 12554635
0.08869458 0.0075245555 0.45200002 12488330
0.089186348 0.0075245555 0.45200002 12290951
0.089678124 0.0075245555 0.45200002 12422024
0.090169892 0.0075245555 0.45200002 12553610
0.090661667 0.0075245555 0.45200002 12816528
0.091153443 0.0075245555 0.45200002 12553356
0.091847964 0.0075412025 0.45300001 12816528
0.092340827 0.0075412025 0.45300001 13013907
0.092833683 0.0075412025 0.45300001 12882321
0.093326539 0.0075412025 0.45300001 12816528
0.093819402 0.0075412025 0.45300001 12882321
0.094312266 0.0075412025 0.45300001 12948114
0.094805121 0.0075412025 0.45300001 13013907
0.095297985 0.0075412025 0.45300001 12882321
0.096002303 0.0075578499 0.45400003 12948114
0.096496254 0.0075578499 0.45400003 12421770
0.096990198 0.0075578499 0.45400003 12750735
0.097484149 0.0075578499 0.45400003 12750735
0.0979781 0.0075578499 0.45400003 12750737
0.098472044 0.0075578499 0.45400003 12487565
0.098965995 0.0075578499 0.45400003 12552336
0.099459939 0.0075578499 0.45400003 12552336
0.09995389 0.0075578499 0.45400003 12749204
0.10044783 0.0075578499 0.45400003 12420239
0.10094178 0.0075578499 0.45400003 13144221
0.10143574 0.0075578499 0.45400003 12420498
0.1021542 0.0075744973 0.45500001 11960971
0.10264923 0.0075744973 0.45500001 11960971
0.10314427 0.0075744973 0.45500001 12553108
0.1036393 0.0075744973 0.45500001 12026762
0.10413434 0.0075744973 0.45500001 11303039
0.10462938 0.0075744973 0.45500001 12093068
0.10512441 0.0075744973 0.45500001 11632517
0.10561945 0.0075744973 0.45500001 11171966
0.1063477 0.0075911446 0.45600003 11829896
0.10684382 0.0075911446 0.45600003 11961482
0.10733995 0.0075911446 0.45600003 10843001
0.10807256 0.0076077916 0.45700002 9394272
0.10856977 0.0076077916 0.45700002 10512753
0.10930564 0.007624439 0.45800003 10907511
0.10980394 0.007624439 0.45800003 10710132
0.11054307 0.0076410864 0.45900002 10907509
0.11128438 0.0076577333 0.46000001 9986407
0.11178485 0.0076577333 0.46000001 11038582
0.11252943 0.0076743807 0.46100003 9459550
0.11327618 0.0076910276 0.46200001 9590620
0.11377884 0.0076910276 0.46200001 9459034
0.11452885 0.0077076755 0.46300003 10512744
0.11528104 0.0077243224 0.46400002 9854814
0.11578587 0.0077243224 0.46400002 9000534
0.11629069 0.0077243224 0.46400002 8934741
0.11679552 0.0077243224 0.46400002 8212815
0.11755315 0.0077409698 0.46500003 8147022
0.13033782 0.0084734485 0.509 8147022
0.064986244 0.0083178263 0.46900001 12038303
0.065496512 0.0083178263 0.46900001 11577752
0.065866038 0.0083000911 0.46800002 11446164
0.066375218 0.0083000911 0.46800002 11380371
0.066884398 0.0083000911 0.46800002 12038299
0.067249574 0.008282356 0.46700001 10656646
0.067757666 0.008282356 0.46700001 10064249
0.068119578 0.0082646208 0.46600002 10590593
0.068479322 0.0082468856 0.46500003 11773584
0.068985231 0.0082468856 0.46500003 10589310
0.069341697 0.0082291504 0.46400002 11048576
0.069696002 0.0082114153 0.46300003 12101264
0.070048116 0.0081936801 0.46200001 11508613
0.07055077 0.0081936801 0.46200001 11508613
0.070899628 0.0081759449 0.46100003 9401956
0.071246311 0.0081582097 0.46000001 9336163
0.071746781 0.0081582097 0.46000001 9928300
0.072090201 0.0081404746 0.45900002 9796714
0.072589591 0.0081404746 0.45900002 10454644
0.073088981 0.0081404746 0.45900002 10518382
0.073428042 0.0081227394 0.45800003 8741971
0.073926345 0.0081227394 0.45800003 9465434
0.074424639 0.0081227394 0.45800003 10254950
0.074922942 0.0081227394 0.45800003 10253667
0.075256564 0.0081050033 0.45700002 10582632
0.075753778 0.0081050033 0.45700002 10581865
0.076250993 0.0081050033 0.45700002 11963518
0.076748207 0.0081050033 0.45700002 12357506
0.077245407 0.0081050033 0.45700002 10778474
0.07757251 0.008087269 0.45600003 9462102
0.078068636 0.008087269 0.45600003 10777962
0.078564763 0.008087269 0.45600003 11764857
0.079060882 0.008087269 0.45600003 10383204
0.079557009 0.008087269 0.45600003 10516335
0.079877578 0.0080695329 0.45500001 11832195
0.080372609 0.0080695329 0.45500001 11437437
0.080867648 0.0080695329 0.45500001 9726819
0.08136268 0.0080695329 0.45500001 9989991
0.081677817 0.0080517977 0.45400003 10253163
0.08217176 0.0080517977 0.45400003 10976373
0.082483627 0.0080340626 0.45300001 10450029
0.082976483 0.0080340626 0.45300001 10778222
0.083469339 0.0080340626 0.45300001 11765117
0.083962202 0.0080340626 0.45300001 11764090
0.084455065 0.0080340626 0.45300001 11698297
0.084760405 0.0080163274 0.45200002 11698297
0.085252173 0.0080163274 0.45200002 11895676
0.085743949 0.0080163274 0.45200002 10842990
0.086235717 0.0080163274 0.45200002 9987681
0.086727493 0.0080163274 0.45200002 11500920
0.087219261 0.0080163274 0.45200002 11961471
0.087711036 0.0080163274 0.45200002 11106162
0.088202804 0.0080163274 0.45200002 11303541
0.08869458 0.0080163274 0.45200002 11894395
0.089186348 0.0080163274 0.45200002 12420739
0.089678124 0.0080163274 0.45200002 12551555
0.090169892 0.0080163274 0.45200002 11564660
0.090661667 0.0080163274 0.45200002 12485764
0.091153443 0.0080163274 0.45200002 13735831
0.091847964 0.0080340626 0.45300001 12288385
0.092340827 0.0080340626 0.45300001 11762041
0.092833683 0.0080340626 0.45300001 12354948
0.093326539 0.0080340626 0.45300001 13407636
0.093819402 0.0080340626 0.45300001 12947598
0.094312266 0.0080340626 0.45300001 12881805
0.094805121 0.0080340626 0.45300001 12881805
0.095297985 0.0080340626 0.45300001 12355461
0.096002303 0.0080517977 0.45400003 12552586
0.096496254 0.0080517977 0.45400003 12157828
0.096990198 0.0080517977 0.45400003 12947344
0.097484149 0.0080517977 0.45400003 12684172
0.0979781 0.0080517977 0.45400003 12684174
0.098472044 0.0080517977 0.45400003 12881553
0.098965995 0.0080517977 0.45400003 12946581
0.099459939 0.0080517977 0.45400003 11564928
0.09995389 0.0080517977 0.45400003 10183023
0.10044783 0.0080517977 0.45400003 11169918
0.10094178 0.0080517977 0.45400003 12419985
0.10165916 0.0080695329 0.45500001 10972539
0.1021542 0.0080695329 0.45500001 11038586
0.10264923 0.0080695329 0.45500001 11038586
0.10314427 0.0080695329 0.45500001 11959688
0.1036393 0.0080695329 0.45500001 11564930
0.10413434 0.0080695329 0.45500001 9459554
0.10462938 0.0080695329 0.45500001 11565443
0.10512441 0.0080695329 0.45500001 11236478
0.10585158 0.008087269 0.45600003 10381937
0.1063477 0.008087269 0.45600003 11829383
0.10684382 0.008087269 0.45600003 11960969
0.10733995 0.008087269 0.45600003 10184558
0.10807256 0.0081050033 0.45700002 9328479
0.10856977 0.0081050033 0.45700002 10973304
0.10930564 0.0081227394 0.45800003 10249581
0.10980394 0.0081227394 0.45800003 9131100
0.11054307 0.0081404746 0.45900002 9986409
0.11128438 0.0081582097 0.46000001 10183788
0.11178485 0.0081582097 0.46000001 10708847
0.11252943 0.0081759449 0.46100003 9853538
0.11327618 0.0081936801 0.46200001 10182755
0.11377884 0.0081936801 0.46200001 10051169
0.11452885 0.0082114153 0.46300003 10248548
0.11528104 0.0082291504 0.46400002 9919583
0.11578587 0.0082291504 0.46400002 9328983
0.11629069 0.0082291504 0.46400002 9328983
0.11704724 0.0082468856 0.46500003 9462112
0.11755315 0.0082468856 0.46500003 9067354
0.13033782 0.0090272361 0.509 9067354
0.064986244 0.0088280942 0.46900001 11709338
0.065356858 0.0088092713 0.46800002 11775131
0.065866038 0.0088092713 0.46800002 11511957
0.066375218 0.0088092713 0.46800002 11446164
0.066884398 0.0088092713 0.46800002 11644056
0.067249574 0.0087904483 0.46700001 11512470
0.067612574 0.0087716253 0.46600002 11644054
0.068119578 0.0087716253 0.46600002 11709847
0.068479322 0.0087528024 0.46500003 11840406
0.068836868 0.0087339785 0.46400002 11577234
0.069341697 0.0087339785 0.46400002 11707791
0.069696002 0.0087151555 0.46300003 12036756
0.070048116 0.0086963316 0.46200001 11838092
0.07055077 0.0086963316 0.46200001 11838092
0.070899628 0.0086775087 0.46100003 10324339
0.071246311 0.0086586857 0.46000001 9402467
0.071746781 0.0086586857 0.46000001 11573636
0.072247259 0.0086586857 0.46000001 9994604
0.072589591 0.0086398628 0.45900002 10126190
0.073088981 0.0086398628 0.45900002 10783091
0.073428042 0.0086210398 0.45800003 9927782
0.073926345 0.0086210398 0.45800003 9268569
0.074424639 0.0086210398 0.45800003 9597534
0.074922942 0.0086210398 0.45800003 9793886
0.075421244 0.0086210398 0.45800003 10057058
0.075753778 0.0086022159 0.45700002 10318693
0.076250993 0.0086022159 0.45700002 10910830
0.076748207 0.0086022159 0.45700002 12028541
0.077245407 0.0086022159 0.45700002 11765369
0.07757251 0.0085833929 0.45600003 9198417
0.078068636 0.0085833929 0.45600003 10316898
0.078564763 0.0085833929 0.45600003 10382691
0.079060882 0.0085833929 0.45600003 9856347
0.079557009 0.0085833929 0.45600003 9001297
0.079877578 0.0085645691 0.45500001 11764603
0.080372609 0.0085645691 0.45500001 12356229
0.080867648 0.0085645691 0.45500001 9395544
0.081183866 0.0085457461 0.45400003 9462364
0.081677817 0.0085457461 0.45400003 11567740
0.08217176 0.0085457461 0.45400003 12159361
0.082483627 0.0085269231 0.45300001 9856606
0.082976483 0.0085269231 0.45300001 9394772
0.083469339 0.0085269231 0.45300001 10776425
0.083962202 0.0085269231 0.45300001 11894906
0.08426863 0.0085081002 0.45200002 11829113
0.084760405 0.0085081002 0.45200002 11894906
0.085252173 0.0085081002 0.45200002 12552836
0.085743949 0.0085081002 0.45200002 10184288
0.086235717 0.0085081002 0.45200002 9789530
0.086727493 0.0085081002 0.45200002 10710119
0.087219261 0.0085081002 0.45200002 10841705
0.087711036 0.0085081002 0.45200002 10248798
0.088202804 0.0085081002 0.45200002 10511970
0.08869458 0.0085081002 0.45200002 11498353
0.089186348 0.0085081002 0.45200002 12222076
0.089678124 0.0085081002 0.45200002 11497840
0.090169892 0.0085081002 0.45200002 9721429
0.090661667 0.0085081002 0.45200002 10312798
0.091153443 0.0085081002 0.45200002 13207690
0.091847964 0.0085269231 0.45300001 11233900
0.092340827 0.0085269231 0.45300001 10115419
0.092833683 0.0085269231 0.45300001 11037550
0.093326539 0.0085269231 0.45300001 12879754
0.093819402 0.0085269231 0.45300001 12880268
0.094312266 0.0085269231 0.45300001 12880268
0.094805121 0.0085269231 0.45300001 12814475
0.095508359 0.0085457461 0.45400003 12682889
0.096002303 0.0085457461 0.45400003 12551303
0.096496254 0.0085457461 0.45400003 12551303
0.096990198 0.0085457461 0.45400003 12748682
0.097484149 0.0085457461 0.45400003 12617096
0.0979781 0.0085457461 0.45400003 12814477
0.098472044 0.0085457461 0.45400003 12748684
0.098965995 0.0085457461 0.45400003 12880020
0.099459939 0.0085457461 0.45400003 10774644
0.09995389 0.0085457461 0.45400003 8932186
0.10044783 0.0085457461 0.45400003 10511218
0.10116412 0.0085645691 0.45500001 11563908
0.10165916 0.0085645691 0.45500001 9919083
0.1021542 0.0085645691 0.45500001 9721702
0.10264923 0.0085645691 0.45500001 9721702
0.10314427 0.0085645691 0.45500001 11761285
0.1036393 0.0085645691 0.45500001 11761025
0.10413434 0.0085645691 0.45500001 9195098
0.10462938 0.0085645691 0.45500001 11761539
0.10512441 0.0085645691 0.45500001 10708851
0.10585158 0.0085833929 0.45600003 9065307
0.1063477 0.0085833929 0.45600003 11565441
0.10684382 0.0085833929 0.45600003 12420237
0.10757534 0.0086022159 0.45700002 11170170
0.10807256 0.0086022159 0.45700002 9920103
0.10880734 0.0086210398 0.45800003 10775412
0.10930564 0.0086210398 0.45800003 9722724
0.11004368 0.0086398628 0.45900002 8670036
0.11054307 0.0086398628 0.45900002 9328479
0.11128438 0.0086586857 0.46000001 9657444
0.11202787 0.0086775087 0.46100003 10183273
0.11252943 0.0086775087 0.46100003 10183273
0.11327618 0.0086963316 0.46200001 10314343
0.11402512 0.0087151555 0.46300003 10051171
0.11452885 0.0087151555 0.46300003 10182755
0.11528104 0.0087339785 0.46400002 9985376
0.11578587 0.0087339785 0.46400002 9460056
0.11629069 0.0087339785 0.46400002 9723228
0.11679552 0.0087339785 0.46400002 9592925
0.11755315 0.0087528024 0.46500003 9395546
0.065496512 0.0093383621 0.46900001 11775129
0.065866038 0.0093184514 0.46800002 11775129
0.066375218 0.0093184514 0.46800002 11775129
0.066884398 0.0093184514 0.46800002 11709849
0.067249574 0.0092985397 0.46700001 11709849
0.067757666 0.0092985397 0.46700001 12170398
0.068119578 0.009278629 0.46600002 11841433
0.068479322 0.0092587182 0.46500003 11775640
0.068836868 0.0092388066 0.46400002 12630949
0.069341697 0.0092388066 0.46400002 12761762
0.069696002 0.0092188958 0.46300003 11972246
0.070048116 0.0091989841 0.46200001 11774097
0.07055077 0.0091989841 0.46200001 11774097
0.070899628 0.0091790734 0.46100003 11904398
0.071401194 0.0091790734 0.46100003 11838346
0.071746781 0.0091591617 0.46000001 12101518
0.072247259 0.0091591617 0.46000001 12101004
0.072589591 0.009139251 0.45900002 11640453
0.073088981 0.009139251 0.45900002 11244925
0.073588364 0.009139251 0.45900002 10652788
0.073926345 0.0091193393 0.45800003 10650992
0.074424639 0.0091193393 0.45800003 10979957
0.074922942 0.0091193393 0.45800003 10715247
0.075421244 0.0091193393 0.45800003 9991524
0.075753778 0.0090994276 0.45700002 10056034
0.076250993 0.0090994276 0.45700002 11569273
0.076748207 0.0090994276 0.45700002 12160129
0.077245407 0.0090994276 0.45700002 12160129
0.07757251 0.0090795169 0.45600003 9198928
0.078068636 0.0090795169 0.45600003 9593686
0.078564763 0.0090795169 0.45600003 10448995
0.079060882 0.0090795169 0.45600003 10383202
0.079557009 0.0090795169 0.45600003 9264210
0.079877578 0.0090596052 0.45500001 11501172
0.080372609 0.0090596052 0.45500001 12158078
0.080867648 0.0090596052 0.45500001 9328979
0.08136268 0.0090596052 0.45500001 9131602
0.081677817 0.0090396944 0.45400003 11368564
0.08217176 0.0090396944 0.45400003 12421250
0.082665712 0.0090396944 0.45400003 9723737
0.082976483 0.0090197828 0.45300001 10183259
0.083469339 0.0090197828 0.45300001 10643810
0.083962202 0.0090197828 0.45300001 12354428
0.084455065 0.0090197828 0.45300001 12354428
0.084760405 0.008999872 0.45200002 12684163
0.085252173 0.008999872 0.45200002 12552577
0.085743949 0.008999872 0.45200002 10184027
0.086235717 0.008999872 0.45200002 9262925
0.086727493 0.008999872 0.45200002 9722194
0.087219261 0.008999872 0.45200002 12156535
0.087711036 0.008999872 0.45200002 10905701
0.088202804 0.008999872 0.45200002 9063497
0.08869458 0.008999872 0.45200002 11629424
0.089186348 0.008999872 0.45200002 12418940
0.089678124 0.008999872 0.45200002 11102312
0.090169892 0.008999872 0.45200002 9918038
0.090661667 0.008999872 0.45200002 11167592
0.0913551 0.0090197828 0.45300001 12878210
0.091847964 0.0090197828 0.45300001 11036008
0.092340827 0.0090197828 0.45300001 9851734
0.092833683 0.0090197828 0.45300001 11761273
0.093326539 0.0090197828 0.45300001 13011340
0.093819402 0.0090197828 0.45300001 12616582
0.094312266 0.0090197828 0.45300001 12813961
0.095014408 0.0090396944 0.45400003 12813961
0.095508359 0.0090396944 0.45400003 12682375
0.096002303 0.0090396944 0.45400003 12419457
0.096496254 0.0090396944 0.45400003 12419457
0.096990198 0.0090396944 0.45400003 12287871
0.097484149 0.0090396944 0.45400003 12287871
0.0979781 0.0090396944 0.45400003 12287617
0.098472044 0.0090396944 0.45400003 12353410
0.098965995 0.0090396944 0.45400003 12747407
0.099459939 0.0090396944 0.45400003 9786722
0.09995389 0.0090396944 0.45400003 8668500
0.10044783 0.0090396944 0.45400003 9918567
0.10116412 0.0090596052 0.45500001 11761285
0.10165916 0.0090596052 0.45500001 10379632
0.1021542 0.0090596052 0.45500001 9590116
0.10264923 0.0090596052 0.45500001 9590116
0.10314427 0.0090596052 0.45500001 9787495
0.1036393 0.0090596052 0.45500001 9721188
0.10413434 0.0090596052 0.45500001 9458016
0.10485933 0.0090795169 0.45600003 10839921
0.10535546 0.0090795169 0.45600003 11037300
0.10585158 0.0090795169 0.45600003 9327966
0.1063477 0.0090795169 0.45600003 10512240
0.10707813 0.0090994276 0.45700002 11235963
0.10757534 0.0090994276 0.45700002 10775412
0.10807256 0.0090994276 0.45700002 10512240
0.10880734 0.0091193393 0.45800003 10512240
0.10930564 0.0091193393 0.45800003 10249581
0.11054307 0.009139251 0.45900002 11104888
0.11128438 0.0091591617 0.46000001 9854821
0.11202787 0.0091790734 0.46100003 10117993
0.11252943 0.0091790734 0.46100003 10249579
0.11327618 0.0091989841 0.46200001 10315113
0.11402512 0.0092188958 0.46300003 10183527
0.11477621 0.0092388066 0.46400002 10183525
0.11528104 0.0092388066 0.46400002 10051939
0.11578587 0.0092388066 0.46400002 9920607
0.11629069 0.0092388066 0.46400002 9789021
0.11704724 0.0092587182 0.46500003 9723741
0.11755315 0.0092587182 0.46500003 9526362
0.065866038 0.0098276306 0.46800002 11840922
0.066375218 0.0098276306 0.46800002 11840922
0.066741481 0.0098066311 0.46700001 11841435
0.067249574 0.0098066311 0.46700001 11907228
0.067612574 0.0097856326 0.46600002 11907228
0.068119578 0.0097856326 0.46600002 11907228
0.068479322 0.0097646331 0.46500003 11709849
0.068836868 0.0097436337 0.46400002 11841435
0.069341697 0.0097436337 0.46400002 11972506
0.069696002 0.0097226351 0.46300003 11840920
0.070048116 0.0097016357 0.46200001 11906199
0.07055077 0.0097016357 0.46200001 11906199
0.070899628 0.0096806362 0.46100003 12037269
0.071401194 0.0096806362 0.46100003 12036754
0.071746781 0.0096596368 0.46000001 11576203
0.072247259 0.0096596368 0.46000001 11444101
0.072589591 0.0096386382 0.45900002 11707273
0.073088981 0.0096386382 0.45900002 12166797
0.073588364 0.0096386382 0.45900002 12364176
0.074087754 0.0096386382 0.45900002 11901318
0.074424639 0.0096176388 0.45800003 11967111
0.074922942 0.0096176388 0.45800003 11834242
0.075421244 0.0096176388 0.45800003 11636863
0.075919546 0.0096176388 0.45800003 11767937
0.076250993 0.0095966393 0.45700002 11965316
0.076748207 0.0095966393 0.45700002 12029826
0.077245407 0.0095966393 0.45700002 11569275
0.077742621 0.0095966393 0.45700002 10383716
0.078068636 0.0095756408 0.45600003 11765369
0.078564763 0.0095756408 0.45600003 12291967
0.079060882 0.0095756408 0.45600003 11963002
0.079557009 0.0095756408 0.45600003 10909800
0.079877578 0.0095546404 0.45500001 10975593
0.080372609 0.0095546404 0.45500001 11830137
0.080867648 0.0095546404 0.45500001 11238000
0.08136268 0.0095546404 0.45500001 11039597
0.081677817 0.0095336419 0.45400003 10908011
0.08217176 0.0095336419 0.45400003 11631475
0.082665712 0.0095336419 0.45400003 10512994
0.082976483 0.0095126424 0.45300001 9722706
0.083469339 0.0095126424 0.45300001 10972773
0.083962202 0.0095126424 0.45300001 11762289
0.08426863 0.0094916429 0.45200002 10512222
0.084760405 0.0094916429 0.45200002 12091508
0.085252173 0.0094916429 0.45200002 12552059
0.085743949 0.0094916429 0.45200002 11696496
0.086235717 0.0094916429 0.45200002 9722706
0.086727493 0.0094916429 0.45200002 10906466
0.087219261 0.0094916429 0.45200002 12222326
0.087711036 0.0094916429 0.45200002 12089975
0.088202804 0.0094916429 0.45200002 10050392
0.08869458 0.0094916429 0.45200002 11432045
0.089186348 0.0094916429 0.45200002 12747905
0.089678124 0.0094916429 0.45200002 11431275
0.090369381 0.0095126424 0.45300001 10378587
0.090862244 0.0095126424 0.45300001 11102310
0.0913551 0.0095126424 0.45300001 12352377
0.091847964 0.0095126424 0.45300001 11760242
0.092340827 0.0095126424 0.45300001 10181210
0.092833683 0.0095126424 0.45300001 9984349
0.093326539 0.0095126424 0.45300001 12813448
0.093819402 0.0095126424 0.45300001 12549506
0.094520465 0.0095336419 0.45400003 12352127
0.095014408 0.0095336419 0.45400003 11891830
0.095508359 0.0095336419 0.45400003 12483967
0.096002303 0.0095336419 0.45400003 12418944
0.096496254 0.0095336419 0.45400003 12418944
0.096990198 0.0095336419 0.45400003 12287358
0.097484149 0.0095336419 0.45400003 12287358
0.0979781 0.0095336419 0.45400003 12287104
0.098472044 0.0095336419 0.45400003 12418690
0.098965995 0.0095336419 0.45400003 12352647
0.099459939 0.0095336419 0.45400003 10970994
0.09995389 0.0095336419 0.45400003 10445165
0.10044783 0.0095336419 0.45400003 10839923
0.10116412 0.0095546404 0.45500001 10905976
0.10165916 0.0095546404 0.45500001 10774390
0.1021542 0.0095546404 0.45500001 10708597
0.10264923 0.0095546404 0.45500001 10708597
0.10314427 0.0095546404 0.45500001 11169148
0.1036393 0.0095546404 0.45500001 11103609
0.10413434 0.0095546404 0.45500001 10708851
0.10485933 0.0095756408 0.45600003 10576751
0.10535546 0.0095756408 0.45600003 11037302
0.10585158 0.0095756408 0.45600003 10643056
0.1063477 0.0095756408 0.45600003 11103607
0.10707813 0.0095966393 0.45700002 11235193
0.10757534 0.0095966393 0.45700002 11169400
0.10830904 0.0096176388 0.45800003 11169400
0.10880734 0.0096176388 0.45800003 10840435
0.10930564 0.0096176388 0.45800003 10841203
0.11004368 0.0096386382 0.45900002 11235961
0.11054307 0.0096386382 0.45900002 10644337
