# .PCD v0.7 - Point Cloud Data file format
VERSION 0.7
FIELDS x y z rgb
SIZE 4 4 4 4
TYPE F F F U
COUNT 1 1 1 1
WIDTH 1101
HEIGHT 1
VIEWPOINT 0 0 0 1 0 0 0
POINTS 1101
DATA ascii
0.10554919 0.038603138 0.45900002 11355983
0.10604858 0.038603138 0.45900002 11421776
0.1067801 0.038687237 0.46000001 10833232
0.10728057 0.038687237 0.46000001 10767439
0.10778105 0.038687237 0.46000001 9784394
0.10828152 0.038687237 0.46000001 10179152
0.10901849 0.038771342 0.46100003 9658718
0.10952006 0.038771342 0.46100003 9856097
0.11026027 0.038855445 0.46200001 9595751
0.11076292 0.038855445 0.46200001 8082512
0.11150641 0.038939547 0.46300003 7886162
0.11225207 0.039023649 0.46400002 7622990
0.1127569 0.039023649 0.46400002 8742239
0.11350583 0.039107755 0.46500003 8676446
0.11425693 0.039191857 0.46600002 8217432
0.11476394 0.039191857 0.46600002 8414811
0.11551829 0.039275955 0.46700001 8481115
0.11602639 0.039275955 0.46700001 8283736
0.11678402 0.039360061 0.46800002 8283736
0.11729319 0.039360061 0.46800002 8679262
0.065988205 0.040891528 0.48000002 12555416
0.066510439 0.040891528 0.48000002 12818588
0.066893026 0.040806342 0.47900003 13148836
0.067273431 0.040721148 0.47800002 12887463
0.067884803 0.040465578 0.47500002 12953256
0.068113595 0.040295195 0.47300002 13019049
0.068483122 0.040210005 0.47200003 13085358
0.068850473 0.040124815 0.47100002 13282737
0.069215655 0.040039625 0.47000003 13217457
0.069430292 0.039869241 0.46800002 13151664
0.069790028 0.039784051 0.46700001 13151664
0.07029812 0.039784051 0.46700001 13151664
0.070654593 0.039698862 0.46600002 13151664
0.071161605 0.039698862 0.46600002 13217457
0.071514815 0.039613672 0.46500003 13283252
0.072020732 0.039613672 0.46500003 13151666
0.072370663 0.039528478 0.46400002 13085873
0.072875492 0.039528478 0.46400002 13217459
0.073222183 0.039443288 0.46300003 13216946
0.073725924 0.039443288 0.46300003 12887981
0.074069336 0.039358098 0.46200001 12822186
0.074571989 0.039358098 0.46200001 12887979
0.075074635 0.039358098 0.46200001 12953002
0.075413704 0.039272908 0.46100003 12821416
0.07591527 0.039272908 0.46100003 12951973
0.076416835 0.039272908 0.46100003 12491422
0.076751545 0.039187714 0.46000001 12752795
0.077252023 0.039187714 0.46000001 12686487
0.077583462 0.039102525 0.45900002 12489108
0.078082852 0.039102525 0.45900002 12553356
0.078582242 0.039102525 0.45900002 12355977
0.079081632 0.039102525 0.45900002 12486793
0.079581022 0.039102525 0.45900002 12552586
0.080080412 0.039102525 0.45900002 12748682
0.080404244 0.039017335 0.45800003 12748682
0.080902539 0.039017335 0.45800003 12812932
0.081400841 0.039017335 0.45800003 12549760
0.081899144 0.039017335 0.45800003 12614268
0.082397446 0.039017335 0.45800003 12351096
0.082895741 0.039017335 0.45800003 12415864
0.083394043 0.039017335 0.45800003 12415864
0.083709165 0.038932145 0.45700002 12546680
0.08420638 0.038932145 0.45700002 12480887
0.084703594 0.038932145 0.45700002 12348788
0.085200801 0.038932145 0.45700002 12282995
0.085698016 0.038932145 0.45700002 12544627
0.086006619 0.038846955 0.45600003 12544627
0.086502746 0.038846955 0.45600003 12610163
0.086998865 0.038846955 0.45600003 12346991
0.087494992 0.038846955 0.45600003 12411499
0.087991118 0.038846955 0.45600003 12411499
0.088487238 0.038846955 0.45600003 12345706
0.088983364 0.038846955 0.45600003 12214120
0.089479491 0.038846955 0.45600003 12409957
0.089778289 0.038761761 0.45500001 12212578
0.090273328 0.038761761 0.45500001 12212321
0.090967856 0.038846955 0.45600003 12080735
0.091463983 0.038846955 0.45600003 12211805
0.09196011 0.038846955 0.45600003 12146012
0.092456236 0.038846955 0.45600003 12538202
0.092952356 0.038846955 0.45600003 11880272
0.093448475 0.038846955 0.45600003 12076108
0.093944602 0.038846955 0.45600003 12010315
0.094440728 0.038846955 0.45600003 12272717
0.094936855 0.038846955 0.45600003 12470096
0.095642254 0.038932145 0.45700002 12470096
0.096139468 0.038932145 0.45700002 12272717
0.096636675 0.038932145 0.45700002 12075338
0.09713389 0.038932145 0.45700002 12140877
0.097631104 0.038932145 0.45700002 12140877
0.098128319 0.038932145 0.45700002 12140879
0.098625526 0.038932145 0.45700002 12206672
0.09912274 0.038932145 0.45700002 11548488
0.099619955 0.038932145 0.45700002 11351109
0.10011716 0.038932145 0.45700002 11416902
0.10083454 0.039017335 0.45800003 11811660
0.10133284 0.039017335 0.45800003 11813713
0.10183115 0.039017335 0.45800003 11879506
0.10232944 0.039017335 0.45800003 11814227
0.10282774 0.039017335 0.45800003 11748434
0.10355164 0.039102525 0.45900002 11682641
0.10405102 0.039102525 0.45900002 11551055
0.10455041 0.039102525 0.45900002 11222603
0.1050498 0.039102525 0.45900002 11222603
0.10554919 0.039102525 0.45900002 10895178
0.10604858 0.039102525 0.45900002 11355729
0.1067801 0.039187714 0.46000001 10570830
0.10728057 0.039187714 0.46000001 10373451
0.10778105 0.039187714 0.46000001 9916237
0.10828152 0.039187714 0.46000001 10574167
0.10901849 0.039272908 0.46100003 9658716
0.10952006 0.039272908 0.46100003 9724509
0.11026027 0.039358098 0.46200001 9201247
0.11076292 0.039358098 0.46200001 8082766
0.11150641 0.039443288 0.46300003 7623242
0.11225207 0.039528478 0.46400002 8478551
0.1127569 0.039528478 0.46400002 8676959
0.11350583 0.039613672 0.46500003 8545373
0.11425693 0.039698862 0.46600002 8283738
0.11476394 0.039698862 0.46600002 8415324
0.11551829 0.039784051 0.46700001 8415324
0.11627484 0.039869241 0.46800002 8020566
0.11678402 0.039869241 0.46800002 8020566
0.11729319 0.039869241 0.46800002 8087641
0.065988205 0.041413765 0.48000002 12489110
0.066510439 0.041413765 0.48000002 12818075
0.066893026 0.041327488 0.47900003 13279909
0.067273431 0.04124121 0.47800002 12952743
0.067651659 0.041154932 0.47700003 13018536
0.06802772 0.041068651 0.47600001 12953002
0.0682576 0.040896095 0.47400004 12953002
0.068628214 0.040809818 0.47300002 13019565
0.068850473 0.040637258 0.47100002 13216944
0.069215655 0.040550981 0.47000003 13283250
0.069430292 0.040378422 0.46800002 13283250
0.069790028 0.040292144 0.46700001 13217457
0.07029812 0.040292144 0.46700001 13217457
0.070654593 0.040205866 0.46600002 13151666
0.071161605 0.040205866 0.46600002 13217459
0.071514815 0.040119588 0.46500003 13217459
0.072020732 0.040119588 0.46500003 13151666
0.072370663 0.040033307 0.46400002 13085360
0.072875492 0.040033307 0.46400002 13085360
0.073380321 0.040033307 0.46400002 13216176
0.073725924 0.039947029 0.46300003 13150383
0.074069336 0.039860751 0.46200001 13018797
0.074571989 0.039860751 0.46200001 13018797
0.075074635 0.039860751 0.46200001 12953002
0.075413704 0.039774474 0.46100003 12821416
0.07591527 0.039774474 0.46100003 13017252
0.076251067 0.039688192 0.46000001 12621207
0.076751545 0.039688192 0.46000001 12621207
0.077252023 0.039688192 0.46000001 12554901
0.077583462 0.039601915 0.45900002 12489108
0.078082852 0.039601915 0.45900002 12619664
0.078582242 0.039601915 0.45900002 12224906
0.079081632 0.039601915 0.45900002 12420487
0.079581022 0.039601915 0.45900002 12354694
0.080080412 0.039601915 0.45900002 12681862
0.080404244 0.039515637 0.45800003 12681862
0.080902539 0.039515637 0.45800003 12878212
0.081400841 0.039515637 0.45800003 12680833
0.081899144 0.039515637 0.45800003 12679291
0.082397446 0.039515637 0.45800003 12481912
0.082895741 0.039515637 0.45800003 12480885
0.083394043 0.039515637 0.45800003 12480885
0.083709165 0.039429355 0.45700002 12677751
0.08420638 0.039429355 0.45700002 12611958
0.084703594 0.039429355 0.45700002 12611188
0.085200801 0.039429355 0.45700002 12413809
0.085698016 0.039429355 0.45700002 12544625
0.086006619 0.039343078 0.45600003 12544625
0.086502746 0.039343078 0.45600003 12544368
0.086998865 0.039343078 0.45600003 12346989
0.087494992 0.039343078 0.45600003 12411499
0.087991118 0.039343078 0.45600003 12345706
0.088487238 0.039343078 0.45600003 12410727
0.088983364 0.039343078 0.45600003 12344934
0.089479491 0.039343078 0.45600003 12409957
0.089778289 0.0392568 0.45500001 12344164
0.090273328 0.0392568 0.45500001 12212321
0.090967856 0.039343078 0.45600003 12212321
0.091463983 0.039343078 0.45600003 12211805
0.09196011 0.039343078 0.45600003 12080219
0.092456236 0.039343078 0.45600003 12275284
0.092952356 0.039343078 0.45600003 11880526
0.093448475 0.039343078 0.45600003 12076108
0.093944602 0.039343078 0.45600003 12076108
0.094440728 0.039343078 0.45600003 12206924
0.094936855 0.039343078 0.45600003 12272717
0.095642254 0.039429355 0.45700002 12272717
0.096139468 0.039429355 0.45700002 12075338
0.096636675 0.039429355 0.45700002 12009545
0.09713389 0.039429355 0.45700002 12075338
0.097631104 0.039429355 0.45700002 12075338
0.098128319 0.039429355 0.45700002 12075084
0.098625526 0.039429355 0.45700002 12009291
0.09912274 0.039429355 0.45700002 11745354
0.099619955 0.039429355 0.45700002 11613768
0.10033624 0.039515637 0.45800003 11614281
0.10083454 0.039515637 0.45800003 11745867
0.10133284 0.039515637 0.45800003 11747920
0.10183115 0.039515637 0.45800003 11813713
0.10232944 0.039515637 0.45800003 11682641
0.10305226 0.039601915 0.45900002 11616848
0.10355164 0.039601915 0.45900002 11551055
0.10405102 0.039601915 0.45900002 11353676
0.10455041 0.039601915 0.45900002 11156810
0.1050498 0.039601915 0.45900002 11091017
0.10554919 0.039601915 0.45900002 10961484
0.10627962 0.039688192 0.46000001 11290449
0.1067801 0.039688192 0.46000001 10636369
0.10728057 0.039688192 0.46000001 10504783
0.10778105 0.039688192 0.46000001 9915983
0.10828152 0.039688192 0.46000001 10376534
0.10901849 0.039774474 0.46100003 9658716
0.10952006 0.039774474 0.46100003 9856095
0.11026027 0.039860751 0.46200001 9135452
0.11076292 0.039860751 0.46200001 8609108
0.11150641 0.039947029 0.46300003 8216149
0.11225207 0.040033307 0.46400002 8610907
0.11299992 0.040119588 0.46500003 8546397
0.11350583 0.040119588 0.46500003 8480604
0.11425693 0.040205866 0.46600002 8349531
0.11501021 0.040292144 0.46700001 8481117
0.11551829 0.040292144 0.46700001 8481887
0.11627484 0.040378422 0.46800002 8745059
0.11678402 0.040378422 0.46800002 8745059
0.11729319 0.040378422 0.46800002 9140331
0.066125683 0.042023368 0.48100004 12948377
0.066510439 0.041935999 0.48000002 13079963
0.067032672 0.041935999 0.48000002 13015967
0.067414172 0.041848633 0.47900003 12951719
0.067793489 0.041761268 0.47800002 13017512
0.068170637 0.041673902 0.47700003 13214891
0.068401597 0.041499168 0.47500002 13214891
0.068628214 0.041324433 0.47300002 13150383
0.06899666 0.041237067 0.47200003 13216176
0.069578648 0.040974967 0.46900001 13479348
0.069790028 0.040800232 0.46700001 13348532
0.070147589 0.040712867 0.46600002 13282739
0.070654593 0.040712867 0.46600002 13282739
0.071161605 0.040712867 0.46600002 13282739
0.071514815 0.040625501 0.46500003 13282739
0.072020732 0.040625501 0.46500003 13348532
0.072370663 0.040538132 0.46400002 13215923
0.072875492 0.040538132 0.46400002 13018544
0.073380321 0.040538132 0.46400002 13083824
0.073725924 0.040450767 0.46300003 13215410
0.074229658 0.040450767 0.46300003 13215663
0.074571989 0.040363401 0.46200001 12952491
0.075074635 0.040363401 0.46200001 13017512
0.075413704 0.040276036 0.46100003 12885926
0.07591527 0.040276036 0.46100003 12819873
0.076251067 0.040188666 0.46000001 12818586
0.076751545 0.040188666 0.46000001 12621207
0.077252023 0.040188666 0.46000001 12489108
0.077583462 0.040101301 0.45900002 12554901
0.078082852 0.040101301 0.45900002 12948116
0.078582242 0.040101301 0.45900002 12948116
0.079081632 0.040101301 0.45900002 13274514
0.079581022 0.040101301 0.45900002 12419205
0.079905942 0.040013935 0.45800003 12680833
0.080404244 0.040013935 0.45800003 12615040
0.080902539 0.040013935 0.45800003 12745856
0.081400841 0.040013935 0.45800003 12614270
0.081899144 0.040013935 0.45800003 12875643
0.082397446 0.040013935 0.45800003 12744057
0.082895741 0.040013935 0.45800003 12612471
0.083394043 0.040013935 0.45800003 12480885
0.083709165 0.039926566 0.45700002 12677751
0.08420638 0.039926566 0.45700002 12611958
0.084703594 0.039926566 0.45700002 12611958
0.085200801 0.039926566 0.45700002 12282993
0.085698016 0.039926566 0.45700002 12413039
0.086006619 0.039839201 0.45600003 12347246
0.086502746 0.039839201 0.45600003 12346989
0.086998865 0.039839201 0.45600003 12149610
0.087494992 0.039839201 0.45600003 12279913
0.087991118 0.039839201 0.45600003 12279913
0.088487238 0.039839201 0.45600003 12475750
0.088983364 0.039839201 0.45600003 12409957
0.089479491 0.039839201 0.45600003 12409957
0.08997561 0.039839201 0.45600003 12344164
0.090273328 0.039751831 0.45500001 12212321
0.090768367 0.039751831 0.45500001 12146528
0.091463983 0.039839201 0.45600003 12277083
0.09196011 0.039839201 0.45600003 12013911
0.092456236 0.039839201 0.45600003 12143698
0.092952356 0.039839201 0.45600003 11880526
0.093448475 0.039839201 0.45600003 12076878
0.093944602 0.039839201 0.45600003 12011085
0.094440728 0.039839201 0.45600003 12076108
0.094936855 0.039839201 0.45600003 12010315
0.095642254 0.039926566 0.45700002 12010315
0.096139468 0.039926566 0.45700002 12009545
0.096636675 0.039926566 0.45700002 12009545
0.09713389 0.039926566 0.45700002 11877959
0.097631104 0.039926566 0.45700002 11877959
0.098128319 0.039926566 0.45700002 11942985
0.098625526 0.039926566 0.45700002 11942985
0.09912274 0.039926566 0.45700002 11482436
0.099619955 0.039926566 0.45700002 11416643
0.10033624 0.040013935 0.45800003 11417156
0.10083454 0.040013935 0.45800003 11680328
0.10133284 0.040013935 0.45800003 11616075
0.10183115 0.040013935 0.45800003 11747661
0.10232944 0.040013935 0.45800003 11551309
0.10305226 0.040101301 0.45900002 11419723
0.10355164 0.040101301 0.45900002 11353676
0.10405102 0.040101301 0.45900002 11287883
0.10455041 0.040101301 0.45900002 11222603
0.1050498 0.040101301 0.45900002 11222603
0.10554919 0.040101301 0.45900002 10830925
0.10627962 0.040188666 0.46000001 11028304
0.1067801 0.040188666 0.46000001 10635599
0.10728057 0.040188666 0.46000001 10635599
0.10778105 0.040188666 0.46000001 9784397
0.10828152 0.040188666 0.46000001 10244948
0.10901849 0.040276036 0.46100003 9789532
0.10952006 0.040276036 0.46100003 9855325
0.11026027 0.040363401 0.46200001 9134682
0.11076292 0.040363401 0.46200001 9003096
0.11150641 0.040450767 0.46300003 8741721
0.11225207 0.040538132 0.46400002 8807514
0.11299992 0.040625501 0.46500003 8743004
0.11350583 0.040625501 0.46500003 8545625
0.11425693 0.040712867 0.46600002 8152150
0.11501021 0.040800232 0.46700001 8349529
0.11576566 0.040887602 0.46800002 8481887
0.11627484 0.040887602 0.46800002 8481887
0.11678402 0.040887602 0.46800002 8481887
0.11729319 0.040887602 0.46800002 8943465
0.065988205 0.042458236 0.48000002 12816793
0.066510439 0.042458236 0.48000002 12948379
0.067032672 0.042458236 0.48000002 12818077
0.067554913 0.042458236 0.48000002 12883870
0.067935318 0.042369783 0.47900003 12884899
0.068313546 0.042281326 0.47800002 13149100
0.068545602 0.042104416 0.47600001 13214893
0.068773307 0.041927509 0.47400004 13084077
0.06899666 0.041750602 0.47200003 13215663
0.069578648 0.041485235 0.46900001 13413042
0.069790028 0.041308325 0.46700001 13742520
0.07029812 0.041308325 0.46700001 13808313
0.070654593 0.041219871 0.46600002 13413555
0.071161605 0.041219871 0.46600002 13281969
0.071514815 0.041131418 0.46500003 13347762
0.072020732 0.041131418 0.46500003 13610934
0.072370663 0.041042961 0.46400002 13281203
0.072875492 0.041042961 0.46400002 13083824
0.073380321 0.041042961 0.46400002 13215410
0.073725924 0.040954508 0.46300003 13281203
0.074229658 0.040954508 0.46300003 13149100
0.074571989 0.040866051 0.46200001 13017514
0.075074635 0.040866051 0.46200001 12885412
0.075413704 0.040777598 0.46100003 12819619
0.07591527 0.040777598 0.46100003 12819360
0.076251067 0.040689144 0.46000001 12884381
0.076751545 0.040689144 0.46000001 12752795
0.077252023 0.040689144 0.46000001 12554131
0.077583462 0.040600687 0.45900002 12685717
0.078082852 0.040600687 0.45900002 12881553
0.078582242 0.040600687 0.45900002 12289416
0.079081632 0.040600687 0.45900002 12747657
0.079581022 0.040600687 0.45900002 12484485
0.079905942 0.040512234 0.45800003 12746372
0.080404244 0.040512234 0.45800003 12614786
0.080902539 0.040512234 0.45800003 12679293
0.081400841 0.040512234 0.45800003 12679293
0.081899144 0.040512234 0.45800003 12678266
0.082397446 0.040512234 0.45800003 12612473
0.082895741 0.040512234 0.45800003 12611958
0.083394043 0.040512234 0.45800003 12677751
0.083709165 0.040423781 0.45700002 12809337
0.08420638 0.040423781 0.45700002 12611958
0.084703594 0.040423781 0.45700002 12479602
0.085200801 0.040423781 0.45700002 12479602
0.085698016 0.040423781 0.45700002 12478832
0.08619523 0.040423781 0.45700002 12347246
0.086692445 0.040423781 0.45700002 12346989
0.086998865 0.040335327 0.45600003 12018024
0.087494992 0.040335327 0.45600003 12279143
0.087991118 0.040335327 0.45600003 12279143
0.088487238 0.040335327 0.45600003 12409957
0.088983364 0.040335327 0.45600003 12344164
0.089479491 0.040335327 0.45600003 12212578
0.08997561 0.040335327 0.45600003 12146785
0.090471737 0.040335327 0.45600003 12080735
0.090967856 0.040335327 0.45600003 12014942
0.091463983 0.040335327 0.45600003 12013911
0.09196011 0.040335327 0.45600003 11882325
0.092456236 0.040335327 0.45600003 12077905
0.092952356 0.040335327 0.45600003 12012112
0.093448475 0.040335327 0.45600003 12011598
0.093944602 0.040335327 0.45600003 11945805
0.094440728 0.040335327 0.45600003 12076108
0.094936855 0.040335327 0.45600003 11878729
0.095642254 0.040423781 0.45700002 11878729
0.096139468 0.040423781 0.45700002 11877959
0.096636675 0.040423781 0.45700002 12075338
0.09713389 0.040423781 0.45700002 12074825
0.097631104 0.040423781 0.45700002 11943239
0.098128319 0.040423781 0.45700002 11811399
0.098625526 0.040423781 0.45700002 11679813
0.09912274 0.040423781 0.45700002 11482436
0.099837944 0.040512234 0.45800003 11350850
0.10033624 0.040512234 0.45800003 11351363
0.10083454 0.040512234 0.45800003 11680328
0.10133284 0.040512234 0.45800003 11616075
0.10183115 0.040512234 0.45800003 11747661
0.10255287 0.040600687 0.45900002 11484748
0.10305226 0.040600687 0.45900002 11353162
0.10355164 0.040600687 0.45900002 11418955
0.10405102 0.040600687 0.45900002 11418955
0.10455041 0.040600687 0.45900002 11288396
0.1050498 0.040600687 0.45900002 11288396
0.10554919 0.040600687 0.45900002 10764875
0.10627962 0.040689144 0.46000001 10633289
0.1067801 0.040689144 0.46000001 9977669
0.10728057 0.040689144 0.46000001 10306634
0.10778105 0.040689144 0.46000001 9521225
0.10828152 0.040689144 0.46000001 9652811
0.10901849 0.040777598 0.46100003 9986911
0.10952006 0.040777598 0.46100003 9855325
0.11026027 0.040866051 0.46200001 8739411
0.11100267 0.040954508 0.46300003 8673618
0.11150641 0.040954508 0.46300003 8412756
0.11225207 0.041042961 0.46400002 8807514
0.11299992 0.041131418 0.46500003 8677211
0.11350583 0.041131418 0.46500003 8545625
0.11425693 0.041219871 0.46600002 8086357
0.11501021 0.041308325 0.46700001 8349529
0.11551829 0.041308325 0.46700001 8285020
0.11627484 0.041396782 0.46800002 8285020
0.11678402 0.041396782 0.46800002 8285020
0.11729319 0.041396782 0.46800002 8088924
0.066125683 0.043070018 0.48100004 12488088
0.066510439 0.042980473 0.48000002 12817053
0.067032672 0.042980473 0.48000002 12883616
0.067554913 0.042980473 0.48000002 13080995
0.067935318 0.042890932 0.47900003 12884901
0.068456464 0.042890932 0.47900003 13082280
0.068689607 0.042711847 0.47700003 13214893
0.0689184 0.042532761 0.47500002 13281456
0.069578648 0.041995503 0.46900001 13347762
0.069790028 0.041816417 0.46700001 13281456
0.07029812 0.041816417 0.46700001 13084077
0.070654593 0.041726876 0.46600002 13676214
0.071161605 0.041726876 0.46600002 13676214
0.071514815 0.041637335 0.46500003 13281456
0.072020732 0.041637335 0.46500003 13281456
0.072370663 0.04154779 0.46400002 13412272
0.072875492 0.04154779 0.46400002 13149100
0.073380321 0.04154779 0.46400002 12885414
0.073725924 0.041458249 0.46300003 12556449
0.074229658 0.041458249 0.46300003 13017000
0.074571989 0.041368704 0.46200001 13017000
0.075074635 0.041368704 0.46200001 12950692
0.075413704 0.041279163 0.46100003 13148071
0.07591527 0.041279163 0.46100003 13015967
0.076251067 0.041189618 0.46000001 12751512
0.076751545 0.041189618 0.46000001 12356754
0.077252023 0.041189618 0.46000001 12750483
0.077583462 0.041100077 0.45900002 12816276
0.078082852 0.041100077 0.45900002 12748682
0.078582242 0.041100077 0.45900002 12551303
0.079081632 0.041100077 0.45900002 12878471
0.079581022 0.041100077 0.45900002 12615299
0.079905942 0.041010536 0.45800003 12745602
0.080404244 0.041010536 0.45800003 12153465
0.080902539 0.041010536 0.45800003 12546680
0.081400841 0.041010536 0.45800003 12678266
0.081899144 0.041010536 0.45800003 12808569
0.082397446 0.041010536 0.45800003 12676983
0.082895741 0.041010536 0.45800003 12676981
0.083211958 0.040920991 0.45700002 12676981
0.083709165 0.040920991 0.45700002 12676981
0.08420638 0.040920991 0.45700002 12676981
0.084703594 0.040920991 0.45700002 12544623
0.085200801 0.040920991 0.45700002 12544623
0.085698016 0.040920991 0.45700002 12412780
0.08619523 0.040920991 0.45700002 12412780
0.086692445 0.040920991 0.45700002 12477803
0.086998865 0.04083145 0.45600003 12148838
0.087494992 0.04083145 0.45600003 12279141
0.087991118 0.04083145 0.45600003 12213348
0.088487238 0.04083145 0.45600003 12344164
0.088983364 0.04083145 0.45600003 12344164
0.089479491 0.04083145 0.45600003 12278114
0.089778289 0.040741906 0.45500001 12080735
0.090273328 0.040741906 0.45500001 12080989
0.090768367 0.040741906 0.45500001 12015196
0.091263399 0.040741906 0.45500001 12276313
0.091758437 0.040741906 0.45500001 11881555
0.092456236 0.04083145 0.45600003 12143184
0.092952356 0.04083145 0.45600003 12208977
0.093448475 0.04083145 0.45600003 12339280
0.093944602 0.04083145 0.45600003 12076108
0.094440728 0.04083145 0.45600003 11680067
0.094936855 0.04083145 0.45600003 11482688
0.095642254 0.040920991 0.45700002 11482688
0.096139468 0.040920991 0.45700002 11811139
0.096636675 0.040920991 0.45700002 12008518
0.09713389 0.040920991 0.45700002 12205897
0.097631104 0.040920991 0.45700002 12008518
0.098128319 0.040920991 0.45700002 11942471
0.098625526 0.040920991 0.45700002 11810885
0.09912274 0.040920991 0.45700002 11810887
0.099837944 0.041010536 0.45800003 11547715
0.10033624 0.041010536 0.45800003 11548742
0.10083454 0.041010536 0.45800003 11877707
0.10133284 0.041010536 0.45800003 11616075
0.10183115 0.041010536 0.45800003 11616075
0.10255287 0.041100077 0.45900002 11485002
0.10305226 0.041100077 0.45900002 11353416
0.10355164 0.041100077 0.45900002 11287369
0.10405102 0.041100077 0.45900002 11287369
0.10455041 0.041100077 0.45900002 11156297
0.1050498 0.041100077 0.45900002 11222090
0.10577915 0.041189618 0.46000001 10699082
0.10627962 0.041189618 0.46000001 10633289
0.1067801 0.041189618 0.46000001 10241611
0.10728057 0.041189618 0.46000001 10175818
0.10778105 0.041189618 0.46000001 9455432
0.10851692 0.041279163 0.46100003 9521225
0.10901849 0.041279163 0.46100003 9855325
0.10952006 0.041279163 0.46100003 9855325
0.11026027 0.041368704 0.46200001 9134169
0.11100267 0.041458249 0.46300003 8739411
0.11150641 0.041458249 0.46300003 8412242
0.11225207 0.04154779 0.46400002 8872793
0.11299992 0.041637335 0.46500003 8743004
0.11350583 0.041637335 0.46500003 8216660
0.11425693 0.041726876 0.46600002 7888978
0.11501021 0.041816417 0.46700001 8415322
0.11551829 0.041816417 0.46700001 8350813
0.11627484 0.041905962 0.46800002 8285020
0.11678402 0.041905962 0.46800002 8285020
0.11729319 0.041905962 0.46800002 8023133
0.066125683 0.043593343 0.48100004 12356502
0.066510439 0.043502711 0.48000002 12948639
0.067032672 0.043502711 0.48000002 12949409
0.067554913 0.043502711 0.48000002 13080995
0.067935318 0.043412082 0.47900003 12950694
0.068456464 0.043412082 0.47900003 13082280
0.068689607 0.04323082 0.47700003 13214379
0.069142833 0.042868298 0.47300002 13872823
0.069578648 0.042505771 0.46900001 10977931
0.069790028 0.042324509 0.46700001 11766420
0.07029812 0.042324509 0.46700001 11042697
0.070654593 0.042233881 0.46600002 13607339
0.071161605 0.042233881 0.46600002 14067890
0.071514815 0.042143252 0.46500003 12949922
0.072020732 0.042143252 0.46500003 14331575
0.072370663 0.042052619 0.46400002 14265782
0.072875492 0.042052619 0.46400002 13673645
0.073222183 0.04196199 0.46300003 13673647
0.073725924 0.04196199 0.46300003 13410475
0.074229658 0.04196199 0.46300003 13475753
0.074571989 0.041871358 0.46200001 13607339
0.075074635 0.041871358 0.46200001 13476007
0.075413704 0.041780729 0.46100003 12489112
0.07591527 0.041780729 0.46100003 12488340
0.076251067 0.041690096 0.46000001 12685205
0.076751545 0.041690096 0.46000001 12487826
0.077252023 0.041690096 0.46000001 12947346
0.077583462 0.041599467 0.45900002 12947346
0.078082852 0.041599467 0.45900002 13274512
0.078582242 0.041599467 0.45900002 12813961
0.079081632 0.041599467 0.45900002 12812932
0.079407647 0.041508839 0.45800003 12549760
0.079905942 0.041508839 0.45800003 12810625
0.080404244 0.041508839 0.45800003 12547453
0.080902539 0.041508839 0.45800003 12612473
0.081400841 0.041508839 0.45800003 12678266
0.081899144 0.041508839 0.45800003 12939385
0.082397446 0.041508839 0.45800003 12807799
0.082895741 0.041508839 0.45800003 12807799
0.083394043 0.041508839 0.45800003 12807799
0.083709165 0.041418206 0.45700002 12675954
0.08420638 0.041418206 0.45700002 12610161
0.084703594 0.041418206 0.45700002 12346989
0.085200801 0.041418206 0.45700002 12346989
0.085698016 0.041418206 0.45700002 12477805
0.08619523 0.041418206 0.45700002 12346219
0.086502746 0.041327577 0.45600003 12345706
0.086998865 0.041327577 0.45600003 12279913
0.087494992 0.041327577 0.45600003 12279143
0.087991118 0.041327577 0.45600003 12213350
0.088487238 0.041327577 0.45600003 12344164
0.088983364 0.041327577 0.45600003 12409957
0.089479491 0.041327577 0.45600003 12278114
0.08997561 0.041327577 0.45600003 12080735
0.090471737 0.041327577 0.45600003 12277598
0.090967856 0.041327577 0.45600003 12277598
0.091463983 0.041327577 0.45600003 12342360
0.09196011 0.041327577 0.45600003 11684430
0.092456236 0.041327577 0.45600003 12076876
0.092952356 0.041327577 0.45600003 12274255
0.093448475 0.041327577 0.45600003 12339278
0.093944602 0.041327577 0.45600003 11878727
0.094440728 0.041327577 0.45600003 11614274
0.094936855 0.041327577 0.45600003 11745860
0.095432974 0.041327577 0.45600003 11876678
0.096139468 0.041418206 0.45700002 11876678
0.096636675 0.041418206 0.45700002 11942471
0.09713389 0.041418206 0.45700002 12074057
0.097631104 0.041418206 0.45700002 12008264
0.098128319 0.041418206 0.45700002 11942471
0.098625526 0.041418206 0.45700002 11942471
0.09912274 0.041418206 0.45700002 11811399
0.099837944 0.041508839 0.45800003 11614020
0.10033624 0.041508839 0.45800003 11417154
0.10083454 0.041508839 0.45800003 11811912
0.10133284 0.041508839 0.45800003 11616073
0.10183115 0.041508839 0.45800003 11550280
0.10232944 0.041508839 0.45800003 11353416
0.10305226 0.041599467 0.45900002 11221830
0.10355164 0.041599467 0.45900002 10959172
0.10405102 0.041599467 0.45900002 10827586
0.10455041 0.041599467 0.45900002 10564927
0.1050498 0.041599467 0.45900002 10893892
0.10577915 0.041690096 0.46000001 10699593
0.10627962 0.041690096 0.46000001 10699593
0.1067801 0.041690096 0.46000001 10439247
0.10728057 0.041690096 0.46000001 10307661
0.10778105 0.041690096 0.46000001 9587788
0.10851692 0.041780729 0.46100003 9850960
0.10901849 0.041780729 0.46100003 9592153
0.10975762 0.041871358 0.46200001 9723739
0.11026027 0.041871358 0.46200001 9265755
0.11100267 0.04196199 0.46300003 8936790
0.11150641 0.04196199 0.46300003 8478035
0.11225207 0.042052619 0.46400002 8938586
0.11299992 0.042143252 0.46500003 8808797
0.11350583 0.042143252 0.46500003 7887695
0.11425693 0.042233881 0.46600002 7034439
0.11476394 0.042233881 0.46600002 8416092
0.11551829 0.042324509 0.46700001 8417119
0.11627484 0.042415142 0.46800002 8417119
0.11678402 0.042415142 0.46800002 8417119
0.065988205 0.044024944 0.48000002 12619928
0.066510439 0.044024944 0.48000002 12817307
0.067032672 0.044024944 0.48000002 13409444
0.067554913 0.044024944 0.48000002 13146272
0.067935318 0.043933228 0.47900003 13081510
0.068313546 0.043841507 0.47800002 13082280
0.068545602 0.04365807 0.47600001 13213866
0.069578648 0.043016039 0.46900001 10320001
0.069939472 0.042924322 0.46800002 11632779
0.07029812 0.042832602 0.46700001 11040642
0.070654593 0.042740881 0.46600002 11433855
0.071161605 0.042740881 0.46600002 12354957
0.071514815 0.042649165 0.46500003 11170683
0.072020732 0.042649165 0.46500003 11236476
0.072370663 0.042557444 0.46400002 11433857
0.072875492 0.042557444 0.46400002 12815510
0.073380321 0.042557444 0.46400002 13408163
0.073725924 0.042465728 0.46300003 13013405
0.074229658 0.042465728 0.46300003 12816026
0.074571989 0.042374007 0.46200001 12816026
0.075074635 0.042374007 0.46200001 13211036
0.075577289 0.042374007 0.46200001 12947864
0.07591527 0.042282291 0.46100003 12947092
0.076416835 0.042282291 0.46100003 12881299
0.076751545 0.04219057 0.46000001 12618127
0.077252023 0.04219057 0.46000001 13012626
0.077583462 0.042098854 0.45900002 12617868
0.078082852 0.042098854 0.45900002 12682114
0.078582242 0.042098854 0.45900002 12550528
0.079081632 0.042098854 0.45900002 12681344
0.079407647 0.042007133 0.45800003 12615551
0.079905942 0.042007133 0.45800003 12614270
0.080404244 0.042007133 0.45800003 12416891
0.080902539 0.042007133 0.45800003 12546680
0.081400841 0.042007133 0.45800003 12546680
0.081899144 0.042007133 0.45800003 12807799
0.082397446 0.042007133 0.45800003 12742006
0.082895741 0.042007133 0.45800003 12807799
0.083394043 0.042007133 0.45800003 12742006
0.083709165 0.041915417 0.45700002 12740977
0.08420638 0.041915417 0.45700002 12675184
0.084703594 0.041915417 0.45700002 12543598
0.085200801 0.041915417 0.45700002 12543598
0.085698016 0.041915417 0.45700002 12411499
0.08619523 0.041915417 0.45700002 12345706
0.086692445 0.041915417 0.45700002 12345706
0.087189652 0.041915417 0.45700002 12214120
0.087494992 0.041823696 0.45600003 12409957
0.087991118 0.041823696 0.45600003 12344164
0.088487238 0.041823696 0.45600003 12409957
0.088983364 0.041823696 0.45600003 12212578
0.089479491 0.041823696 0.45600003 12212321
0.08997561 0.041823696 0.45600003 12080735
0.090471737 0.041823696 0.45600003 12343391
0.090967856 0.041823696 0.45600003 12343391
0.091463983 0.041823696 0.45600003 12275795
0.09196011 0.041823696 0.45600003 11683658
0.092456236 0.041823696 0.45600003 12011083
0.092952356 0.041823696 0.45600003 12274255
0.093448475 0.041823696 0.45600003 12207692
0.093944602 0.041823696 0.45600003 11944520
0.094440728 0.041823696 0.45600003 12075338
0.094936855 0.041823696 0.45600003 12009545
0.095432974 0.041823696 0.45600003 11942985
0.096139468 0.041915417 0.45700002 11942985
0.096636675 0.041915417 0.45700002 11942985
0.09713389 0.041915417 0.45700002 11942985
0.097631104 0.041915417 0.45700002 12074571
0.098128319 0.041915417 0.45700002 11942985
0.098625526 0.041915417 0.45700002 11877192
0.09912274 0.041915417 0.45700002 11877192
0.099837944 0.042007133 0.45800003 11614020
0.10033624 0.042007133 0.45800003 11351361
0.10083454 0.042007133 0.45800003 11680326
0.10133284 0.042007133 0.45800003 11746889
0.10183115 0.042007133 0.45800003 11746889
0.10232944 0.042007133 0.45800003 11485000
0.10305226 0.042098854 0.45900002 11090242
0.10355164 0.042098854 0.45900002 10827584
0.10405102 0.042098854 0.45900002 10827584
0.10455041 0.042098854 0.45900002 10631490
0.10527867 0.04219057 0.46000001 10960455
0.10577915 0.04219057 0.46000001 10765386
0.10627962 0.04219057 0.46000001 10831179
0.1067801 0.04219057 0.46000001 10374224
0.10728057 0.04219057 0.46000001 10374224
0.10801536 0.042282291 0.46100003 9587788
0.10851692 0.042282291 0.46100003 9916753
0.10901849 0.042282291 0.46100003 9328981
0.10975762 0.042374007 0.46200001 9592153
0.11026027 0.042374007 0.46200001 9199962
0.11100267 0.042465728 0.46300003 8805204
0.11150641 0.042465728 0.46300003 8412242
0.11225207 0.042557444 0.46400002 8543828
0.1127569 0.042557444 0.46400002 8677211
0.11350583 0.042649165 0.46500003 7887695
0.11425693 0.042740881 0.46600002 7692369
0.11476394 0.042740881 0.46600002 8613471
0.11551829 0.042832602 0.46700001 8286303
0.11602639 0.042832602 0.46700001 8286303
0.065988205 0.044547182 0.48000002 12488088
0.066510439 0.044547182 0.48000002 12751260
0.067032672 0.044547182 0.48000002 12751260
0.067414172 0.044454373 0.47900003 12883618
0.067793489 0.044361565 0.47800002 13146790
0.068170637 0.044268761 0.47700003 13082280
0.068545602 0.044175953 0.47600001 13148073
0.069578648 0.043526307 0.46900001 10385280
0.069939472 0.043433502 0.46800002 10843517
0.07029812 0.043340694 0.46700001 10646138
0.070654593 0.04324789 0.46600002 12289164
0.071161605 0.04324789 0.46600002 12552336
0.07166861 0.04324789 0.46600002 10841205
0.072020732 0.043155082 0.46500003 11630721
0.072526641 0.043155082 0.46500003 11960201
0.072875492 0.043062273 0.46400002 10775927
0.073380321 0.043062273 0.46400002 13276061
0.073725924 0.042969469 0.46300003 13078682
0.074229658 0.042969469 0.46300003 11564928
0.074571989 0.042876661 0.46200001 11104377
0.075074635 0.042876661 0.46200001 12748684
0.075577289 0.042876661 0.46200001 13209235
0.07591527 0.042783856 0.46100003 13800856
0.076416835 0.042783856 0.46100003 12813961
0.076751545 0.042691048 0.46000001 12682375
0.077252023 0.042691048 0.46000001 13076874
0.077583462 0.04259824 0.45900002 13340046
0.078082852 0.04259824 0.45900002 13405067
0.078582242 0.04259824 0.45900002 12878723
0.079081632 0.04259824 0.45900002 13272968
0.079407647 0.042505436 0.45800003 13272968
0.079905942 0.042505436 0.45800003 12876670
0.080404244 0.042505436 0.45800003 12547705
0.080902539 0.042505436 0.45800003 12546678
0.081400841 0.042505436 0.45800003 12480885
0.081899144 0.042505436 0.45800003 12676981
0.082397446 0.042505436 0.45800003 12611188
0.082895741 0.042505436 0.45800003 12675954
0.083394043 0.042505436 0.45800003 12675954
0.083709165 0.042412627 0.45700002 13069942
0.08420638 0.042412627 0.45700002 12740977
0.084703594 0.042412627 0.45700002 12674671
0.085200801 0.042412627 0.45700002 12674671
0.085698016 0.042412627 0.45700002 12411499
0.08619523 0.042412627 0.45700002 12345706
0.086692445 0.042412627 0.45700002 12410729
0.087189652 0.042412627 0.45700002 12344936
0.087686859 0.042412627 0.45700002 12475750
0.087991118 0.042319823 0.45600003 12409957
0.088487238 0.042319823 0.45600003 12278114
0.088983364 0.042319823 0.45600003 12212321
0.089479491 0.042319823 0.45600003 12277344
0.08997561 0.042319823 0.45600003 12211551
0.090471737 0.042319823 0.45600003 12342878
0.090967856 0.042319823 0.45600003 12408671
0.091463983 0.042319823 0.45600003 12143696
0.09196011 0.042319823 0.45600003 11880524
0.092456236 0.042319823 0.45600003 12076876
0.092952356 0.042319823 0.45600003 12208462
0.093448475 0.042319823 0.45600003 12207694
0.093944602 0.042319823 0.45600003 12141901
0.094440728 0.042319823 0.45600003 12075338
0.094936855 0.042319823 0.45600003 12009545
0.095432974 0.042319823 0.45600003 11877705
0.096139468 0.042412627 0.45700002 11877705
0.096636675 0.042412627 0.45700002 11877705
0.09713389 0.042412627 0.45700002 12009291
0.097631104 0.042412627 0.45700002 12140877
0.098128319 0.042412627 0.45700002 11942985
0.098625526 0.042412627 0.45700002 11614020
0.09912274 0.042412627 0.45700002 11285055
0.099837944 0.042505436 0.45800003 11219262
0.10033624 0.042505436 0.45800003 11350848
0.10083454 0.042505436 0.45800003 11416641
0.10133284 0.042505436 0.45800003 11615303
0.10183115 0.042505436 0.45800003 12010061
0.10232944 0.042505436 0.45800003 11879758
0.10305226 0.04259824 0.45900002 11024449
0.10355164 0.04259824 0.45900002 10893377
0.10405102 0.04259824 0.45900002 10893377
0.10455041 0.04259824 0.45900002 10632260
0.10527867 0.042691048 0.46000001 10895432
0.10577915 0.042691048 0.46000001 10634316
0.10627962 0.042691048 0.46000001 10700109
0.1067801 0.042691048 0.46000001 10177615
0.10751379 0.042783856 0.46100003 10243408
0.10801536 0.042783856 0.46100003 9587788
0.10851692 0.042783856 0.46100003 9982546
0.10925496 0.042876661 0.46200001 9592153
0.10975762 0.042876661 0.46200001 9855325
0.11026027 0.042876661 0.46200001 9199962
0.11100267 0.042969469 0.46300003 8805204
0.11150641 0.042969469 0.46300003 8478035
0.11225207 0.043062273 0.46400002 8872793
0.1127569 0.043062273 0.46400002 8545625
0.11350583 0.043155082 0.46500003 8479832
0.11401175 0.043155082 0.46500003 8218713
0.11476394 0.04324789 0.46600002 8481885
0.11527093 0.04324789 0.46600002 8417119
0.11602639 0.043340694 0.46700001 8482912
0.11653448 0.043340694 0.46700001 8548705
0.065988205 0.045069419 0.48000002 12488088
0.066510439 0.045069419 0.48000002 12685467
0.066893026 0.044975523 0.47900003 12751260
0.067414172 0.044975523 0.47900003 12883616
0.067793489 0.044881627 0.47800002 13080995
0.068170637 0.044787735 0.47700003 13148071
0.068401597 0.044599947 0.47500002 13213864
0.068628214 0.044412155 0.47300002 13279657
0.069215655 0.044130471 0.47000003 13280170
0.069578648 0.044036575 0.46900001 11569552
0.069939472 0.043942682 0.46800002 12358037
0.07029812 0.043848787 0.46700001 10910591
0.070654593 0.043754894 0.46600002 11698310
0.071161605 0.043754894 0.46600002 11632517
0.07166861 0.043754894 0.46600002 10578548
0.072020732 0.043660998 0.46500003 12157580
0.072526641 0.043660998 0.46500003 12816280
0.072875492 0.043567102 0.46400002 10447732
0.073380321 0.043567102 0.46400002 12947094
0.073725924 0.04347321 0.46300003 12683922
0.074229658 0.04347321 0.46300003 11103605
0.074733399 0.04347321 0.46300003 11169398
0.075074635 0.043379314 0.46200001 13405585
0.075577289 0.043379314 0.46200001 13800343
0.07591527 0.043285422 0.46100003 11760760
0.076416835 0.043285422 0.46100003 11892346
0.076751545 0.043191522 0.46000001 12155002
0.077252023 0.043191522 0.46000001 11233387
0.077752493 0.043191522 0.46000001 11167594
0.078082852 0.04309763 0.45900002 11560810
0.078582242 0.04309763 0.45900002 12021361
0.079081632 0.04309763 0.45900002 12416119
0.079407647 0.043003738 0.45800003 12481912
0.079905942 0.043003738 0.45800003 12284276
0.080404244 0.043003738 0.45800003 12152690
0.080902539 0.043003738 0.45800003 12875643
0.081400841 0.043003738 0.45800003 12612471
0.081899144 0.043003738 0.45800003 12478832
0.082397446 0.043003738 0.45800003 12347246
0.082895741 0.043003738 0.45800003 12740975
0.083394043 0.043003738 0.45800003 12806768
0.083892338 0.043003738 0.45800003 12673899
0.08420638 0.042909842 0.45700002 12739692
0.084703594 0.042909842 0.45700002 12673899
0.085200801 0.042909842 0.45700002 13200243
0.085698016 0.042909842 0.45700002 13133680
0.08619523 0.042909842 0.45700002 12541543
0.086692445 0.042909842 0.45700002 12409957
0.087189652 0.042909842 0.45700002 12409957
0.087686859 0.042909842 0.45700002 12541286
0.088184074 0.042909842 0.45700002 12475493
0.088487238 0.042815946 0.45600003 12278114
0.088983364 0.042815946 0.45600003 12146528
0.089479491 0.042815946 0.45600003 12342878
0.08997561 0.042815946 0.45600003 12277085
0.090471737 0.042815946 0.45600003 12342878
0.090967856 0.042815946 0.45600003 12277085
0.091463983 0.042815946 0.45600003 11617352
0.09196011 0.042815946 0.45600003 11880524
0.092456236 0.042815946 0.45600003 12207692
0.092952356 0.042815946 0.45600003 12339278
0.093448475 0.042815946 0.45600003 12207692
0.093944602 0.042815946 0.45600003 12076106
0.094440728 0.042815946 0.45600003 12206924
0.094936855 0.042815946 0.45600003 12075338
0.095642254 0.042909842 0.45700002 12075338
0.096139468 0.042909842 0.45700002 11877446
0.096636675 0.042909842 0.45700002 11811653
0.09713389 0.042909842 0.45700002 11877192
0.097631104 0.042909842 0.45700002 12206157
0.098128319 0.042909842 0.45700002 11942985
0.098625526 0.042909842 0.45700002 11416641
0.09912274 0.042909842 0.45700002 11285055
0.099837944 0.043003738 0.45800003 11153469
0.10033624 0.043003738 0.45800003 11219262
0.10083454 0.043003738 0.45800003 11482434
0.10133284 0.043003738 0.45800003 11549510
0.10183115 0.043003738 0.45800003 12010061
0.10232944 0.043003738 0.45800003 10761277
0.10282774 0.043003738 0.45800003 10958656
0.10355164 0.04309763 0.45900002 10893377
0.10405102 0.04309763 0.45900002 10959170
0.10455041 0.04309763 0.45900002 10566465
0.10527867 0.043191522 0.46000001 10829637
0.10577915 0.043191522 0.46000001 10568777
0.10627962 0.043191522 0.46000001 10700363
0.1067801 0.043191522 0.46000001 10177615
0.10751379 0.043285422 0.46100003 10177615
0.10801536 0.043285422 0.46100003 9653581
0.10851692 0.043285422 0.46100003 9653581
0.10925496 0.043379314 0.46200001 10250083
0.10975762 0.043379314 0.46200001 9855325
0.11026027 0.043379314 0.46200001 9068376
0.11100267 0.04347321 0.46300003 8805204
0.11150641 0.04347321 0.46300003 8478035
0.11225207 0.043567102 0.46400002 8938586
0.1127569 0.043567102 0.46400002 8677981
0.11350583 0.043660998 0.46500003 8677981
0.11401175 0.043660998 0.46500003 8613471
0.11476394 0.043754894 0.46600002 8613471
0.11527093 0.043754894 0.46600002 8548192
0.11602639 0.043848787 0.46700001 8548192
0.11653448 0.043848787 0.46700001 8482912
0.065988205 0.045591652 0.48000002 12488088
0.06637188 0.045496669 0.47900003 12817053
0.066893026 0.045496669 0.47900003 12948639
0.067273431 0.045401685 0.47800002 12949409
0.067651659 0.045306705 0.47700003 13080995
0.06802772 0.045211721 0.47600001 13278887
0.068850473 0.044736806 0.47100002 13278887
0.069215655 0.044641826 0.47000003 13542829
0.069578648 0.044546843 0.46900001 13082278
0.069939472 0.044451859 0.46800002 13082532
0.07029812 0.044356875 0.46700001 12490395
0.070806213 0.044356875 0.46700001 12292246
0.071161605 0.044261895 0.46600002 12160660
0.07166861 0.044261895 0.46600002 11698826
0.072020732 0.044166911 0.46500003 11172482
0.072526641 0.044166911 0.46500003 12817305
0.072875492 0.044071928 0.46400002 11238273
0.073380321 0.044071928 0.46400002 12816276
0.07388515 0.044071928 0.46400002 11434623
0.074229658 0.043976948 0.46300003 10840687
0.074733399 0.043976948 0.46300003 11235445
0.075074635 0.043881964 0.46200001 13471378
0.075577289 0.043881964 0.46200001 12945034
0.07591527 0.04378698 0.46100003 11103084
0.076416835 0.04378698 0.46100003 11958393
0.076918401 0.04378698 0.46100003 12680833
0.077252023 0.043691996 0.46000001 10639453
0.077752493 0.043691996 0.46000001 10771039
0.078082852 0.043597016 0.45900002 10901601
0.078582242 0.043597016 0.45900002 11822703
0.079081632 0.043597016 0.45900002 11427686
0.079581022 0.043597016 0.45900002 10967135
0.079905942 0.043502036 0.45800003 11097951
0.080404244 0.043502036 0.45800003 10966365
0.080902539 0.043502036 0.45800003 13399936
0.081400841 0.043502036 0.45800003 12413041
0.081899144 0.043502036 0.45800003 10964566
0.082397446 0.043502036 0.45800003 12017254
0.082895741 0.043502036 0.45800003 12936301
0.083394043 0.043502036 0.45800003 12409957
0.083892338 0.043502036 0.45800003 11620441
0.08420638 0.043407049 0.45700002 12080992
0.084888943 0.043502036 0.45800003 12014942
0.085200801 0.043407049 0.45700002 12409700
0.085698016 0.043407049 0.45700002 12541286
0.08619523 0.043407049 0.45700002 12409700
0.086692445 0.043407049 0.45700002 12278114
0.087189652 0.043407049 0.45700002 12409700
0.087686859 0.043407049 0.45700002 12672102
0.088184074 0.043407049 0.45700002 12606309
0.088681288 0.043407049 0.45700002 12211551
0.089178503 0.043407049 0.45700002 12211551
0.089479491 0.043312069 0.45600003 12407901
0.08997561 0.043312069 0.45600003 12473694
0.090471737 0.043312069 0.45600003 12407901
0.090967856 0.043312069 0.45600003 12276315
0.091463983 0.043312069 0.45600003 12208977
0.09196011 0.043312069 0.45600003 12011598
0.092456236 0.043312069 0.45600003 12076878
0.092952356 0.043312069 0.45600003 12208464
0.093448475 0.043312069 0.45600003 12207692
0.093944602 0.043312069 0.45600003 12141899
0.094440728 0.043312069 0.45600003 12076106
0.095145047 0.043407049 0.45700002 12076106
0.095642254 0.043407049 0.45700002 12010313
0.096139468 0.043407049 0.45700002 11877446
0.096636675 0.043407049 0.45700002 11811653
0.09713389 0.043407049 0.45700002 11810885
0.097631104 0.043407049 0.45700002 11876678
0.098128319 0.043407049 0.45700002 11942471
0.098625526 0.043407049 0.45700002 11745092
0.099339642 0.043502036 0.45800003 11547713
0.099837944 0.043502036 0.45800003 11284541
0.10033624 0.043502036 0.45800003 11219262
0.10083454 0.043502036 0.45800003 11482434
0.10133284 0.043502036 0.45800003 11417924
0.10183115 0.043502036 0.45800003 11286338
0.10232944 0.043502036 0.45800003 10892863
0.10282774 0.043502036 0.45800003 10892863
0.10355164 0.043597016 0.45900002 10893890
0.10405102 0.043597016 0.45900002 11091269
0.10455041 0.043597016 0.45900002 10764357
0.10527867 0.043691996 0.46000001 10764357
0.10577915 0.043691996 0.46000001 10437961
0.10627962 0.043691996 0.46000001 10569547
0.10701223 0.04378698 0.46100003 10308431
0.10751379 0.04378698 0.46100003 10440017
0.10801536 0.04378698 0.46100003 9785167
0.10875231 0.043881964 0.46200001 9324616
0.10925496 0.043881964 0.46200001 9986909
0.10975762 0.043881964 0.46200001 9855323
0.11026027 0.043881964 0.46200001 9068376
0.11100267 0.043976948 0.46300003 8739411
0.11150641 0.043976948 0.46300003 8215377
0.11201015 0.043976948 0.46300003 8412756
0.1127569 0.044071928 0.46400002 9270118
0.11326173 0.044071928 0.46400002 8941153
0.11401175 0.044166911 0.46500003 7823955
0.11451767 0.044166911 0.46500003 8481885
0.11527093 0.044261895 0.46600002 8350813
0.11577794 0.044261895 0.46600002 8285020
0.11653448 0.044356875 0.46700001 8482399
0.065988205 0.046113886 0.48000002 12488342
0.06637188 0.046017818 0.47900003 13014686
0.066893026 0.046017818 0.47900003 13014686
0.067273431 0.045921747 0.47800002 13015456
0.067651659 0.045825675 0.47700003 13081249
0.067884803 0.045633536 0.47500002 13015456
0.0682576 0.045537464 0.47400004 13015456
0.068483122 0.045345325 0.47200003 13015969
0.068850473 0.045249254 0.47100002 13279141
0.069215655 0.045153182 0.47000003 13279141
0.069578648 0.04505711 0.46900001 13213348
0.069939472 0.044961043 0.46800002 13148325
0.07029812 0.044864967 0.46700001 13411497
0.070806213 0.044864967 0.46700001 13543083
0.071161605 0.0447689 0.46600002 13740462
0.07166861 0.0447689 0.46600002 14002351
0.072020732 0.044672828 0.46500003 13607593
0.072526641 0.044672828 0.46500003 13147042
0.072875492 0.044576757 0.46400002 13410214
0.073380321 0.044576757 0.46400002 13803425
0.07388515 0.044576757 0.46400002 12487565
0.074229658 0.044480689 0.46300003 10710382
0.074733399 0.044480689 0.46300003 10776175
0.075074635 0.044384617 0.46200001 13208719
0.075577289 0.044384617 0.46200001 12879754
0.076079942 0.044384617 0.46200001 11826807
0.076416835 0.044288546 0.46100003 11958393
0.076918401 0.044288546 0.46100003 12153719
0.077252023 0.044192474 0.46000001 10375511
0.077752493 0.044192474 0.46000001 10441304
0.078252964 0.044192474 0.46000001 10703963
0.078582242 0.044096407 0.45900002 12546167
0.079081632 0.044096407 0.45900002 11756651
0.079581022 0.044096407 0.45900002 10967135
0.080080412 0.044096407 0.45900002 11426146
0.080579802 0.044096407 0.45900002 11360353
0.080902539 0.044000335 0.45800003 13530495
0.081400841 0.044000335 0.45800003 13267323
0.081899144 0.044000335 0.45800003 10700111
0.082397446 0.044000335 0.45800003 11555420
0.082895741 0.044000335 0.45800003 13001837
0.083394043 0.044000335 0.45800003 12080735
0.083892338 0.044000335 0.45800003 11093840
0.08439064 0.044000335 0.45800003 11817563
0.084888943 0.044000335 0.45800003 12080735
0.085200801 0.043904264 0.45700002 10764875
0.085698016 0.043904264 0.45700002 11751000
0.08619523 0.043904264 0.45700002 12145758
0.086692445 0.043904264 0.45700002 12276831
0.087189652 0.043904264 0.45700002 12803175
0.087686859 0.043904264 0.45700002 12672102
0.088184074 0.043904264 0.45700002 12672102
0.088681288 0.043904264 0.45700002 11948379
